-1.4612622658411663 -2.3250000178813934 9.159221649169922 -0.0 0.0 -1.0
-2.146017163991928 -2.250000019868215 9.159221649169922 0.0 0.0 -1.0
-1.7878063817818959 -2.250000019868215 9.159221649169922 0.0 0.0 -1.0
-2.241017162799835 -2.4750000139077506 9.159221649169922 -0.0 0.0 -1.0
-2.662561277548472 -2.6250000099341073 9.159221649169922 -0.0 0.0 -1.0
3.1957720120747886 -2.9250000019868216 9.159221649169922 0.0 0.0 -1.0
3.6173161268234253 -2.7750000059604645 9.159221649169922 0.0 0.0 -1.0
4.036544064680736 -2.850000003973643 9.159221649169922 0.0 -0.0 -1.0
1.305772026379903 -2.9250000019868216 9.159221649169922 0.0 0.0 -1.0
1.72731614112854 -2.7750000059604645 9.159221649169922 0.0 0.0 -1.0
2.14654407898585 -2.850000003973643 9.159221649169922 0.0 -0.0 -1.0
3.4088602463404336 -2.6250000099341073 9.159221649169922 -0.0 0.0 -1.0
2.987316131591797 -2.7750000059604645 9.159221649169922 0.0 -0.0 -1.0
2.568088193734487 -2.700000007947286 9.159221649169922 0.0 0.0 -1.0
2.570404370625814 -2.4750000139077506 9.159221649169922 0.0 0.0 -1.0
2.9919484853744507 -2.3250000178813934 9.159221649169922 0.0 0.0 -1.0
3.4111764232317605 -2.400000015894572 9.159221649169922 0.0 -0.0 -1.0
-0.5842279593149821 -2.9250000019868216 9.159221649169922 0.0 0.0 -1.0
-0.16268384456634521 -2.7750000059604645 9.159221649169922 0.0 0.0 -1.0
0.2565440932909648 -2.850000003973643 9.159221649169922 0.0 -0.0 -1.0
-2.474227945009867 -2.9250000019868216 9.159221649169922 0.0 0.0 -1.0
-2.0526838302612305 -2.7750000059604645 9.159221649169922 0.0 0.0 -1.0
-1.6334558924039204 -2.850000003973643 9.159221649169922 0.0 -0.0 -1.0
-0.37113972504933673 -2.6250000099341073 9.159221649169922 -0.0 0.0 -1.0
-0.7926838397979736 -2.7750000059604645 9.159221649169922 0.0 -0.0 -1.0
-1.2119117776552837 -2.700000007947286 9.159221649169922 0.0 0.0 -1.0
-1.2095956007639568 -2.4750000139077506 9.159221649169922 0.0 0.0 -1.0
-0.7880514860153198 -2.3250000178813934 9.159221649169922 0.0 0.0 -1.0
-0.36882354815800983 -2.400000015894572 9.159221649169922 0.0 -0.0 -1.0
2.783492604891459 -2.1750000218550363 9.159221649169922 -0.0 0.0 -1.0
2.3619484901428223 -2.3250000178813934 9.159221649169922 0.0 -0.0 -1.0
1.9427205522855122 -2.250000019868215 9.159221649169922 0.0 0.0 -1.0
1.5188602606455486 -2.6250000099341073 9.159221649169922 -0.0 0.0 -1.0
1.0973161458969116 -2.7750000059604645 9.159221649169922 0.0 -0.0 -1.0
0.6780882080396017 -2.700000007947286 9.159221649169922 0.0 0.0 -1.0
0.6804043849309286 -2.4750000139077506 9.159221649169922 0.0 -0.0 -1.0
1.5211764375368755 -2.400000015894572 9.159221649169922 0.0 -0.0 -1.0
1.1019484996795654 -2.3250000178813934 9.159221649169922 0.0 0.0 -1.0
0.8934926191965739 -2.1750000218550363 9.159221649169922 -0.0 0.0 -1.0
0.471948504447937 -2.3250000178813934 9.159221649169922 0.0 -0.0 -1.0
0.05272056659062704 -2.250000019868215 9.159221649169922 0.0 0.0 -1.0
1.9450367291768391 -2.0250000258286796 9.159221649169922 0.0 0.0 -1.0
2.366580843925476 -1.8750000298023224 9.159221649169922 0.0 0.0 -1.0
2.785808781782786 -1.950000027815501 9.159221649169922 0.0 -0.0 -1.0
0.05503674348195394 -2.0250000258286796 9.159221649169922 0.0 0.0 -1.0
0.4765808582305908 -1.8750000298023224 9.159221649169922 0.0 0.0 -1.0
0.8958087960879008 -1.950000027815501 9.159221649169922 0.0 -0.0 -1.0
2.1581249634424844 -1.7250000337759654 9.159221649169922 -0.0 0.0 -1.0
1.7365808486938477 -1.8750000298023224 9.159221649169922 0.0 -0.0 -1.0
1.3173529108365376 -1.8000000317891438 9.159221649169922 0.0 0.0 -1.0
1.3196690877278645 -1.5750000377496083 9.159221649169922 0.0 0.0 -1.0
1.7412132024765015 -1.4250000417232513 9.159221649169922 0.0 0.0 -1.0
2.1604411403338113 -1.50000003973643 9.159221649169922 0.0 -0.0 -1.0
-2.9366666674613953 -1.2633333206176758 9.159221649169922 0.0 0.0 -1.0
-2.9366666674613953 -0.8099999825159708 9.159221649169922 0.0 0.0 -1.0
-2.810000002384186 -1.643333335717519 9.159221649169922 0.0 0.0 -1.0
-2.8733333349227905 -2.4733333388964334 9.159221649169922 0.0 0.0 -1.0
-2.8733333349227905 -2.0200000007947287 9.159221649169922 0.0 0.0 -1.0
-2.9366666674613953 1.4566667079925537 9.159221649169922 0.0 0.0 -1.0
-2.9366666674613953 1.9100000460942586 9.159221649169922 0.0 0.0 -1.0
-2.810000002384186 1.0766666928927104 9.159221649169922 0.0 0.0 -1.0
-2.8733333349227905 0.246666689713796 9.159221649169922 0.0 0.0 -1.0
-2.8733333349227905 0.7000000278155009 9.159221649169922 0.0 0.0 -1.0
-2.6833333373069763 -1.5700000127156575 9.159221649169922 0.0 0.0 -1.0
-2.6833333373069763 -1.1166666746139526 9.159221649169922 0.0 0.0 -1.0
-2.810000002384186 -0.7366666595141093 9.159221649169922 -0.0 0.0 -1.0
-2.746666669845581 0.0933333436648051 9.159221649169922 0.0 0.0 -1.0
-2.746666669845581 -0.35999999443689984 9.159221649169922 0.0 -0.0 -1.0
-2.556666672229767 -0.3633333444595337 9.159221649169922 0.0 0.0 -1.0
-2.556666672229767 0.08999999364217122 9.159221649169922 0.0 0.0 -1.0
-2.4300000071525574 -0.7433333595593771 9.159221649169922 0.0 0.0 -1.0
-2.493333339691162 -1.5733333627382915 9.159221649169922 0.0 0.0 -1.0
-2.493333339691162 -1.1200000246365864 9.159221649169922 0.0 0.0 -1.0
-2.303333342075348 -0.6389065583546957 9.159221649169922 0.0 0.0 -1.0
-2.4300000071525574 0.22552027304967245 9.159221649169922 0.0 0.0 -1.0
-2.303333342075348 -0.12338626384735107 9.159221649169922 0.0 -0.0 -1.0
-2.6200000047683716 1.135520299275716 9.159221649169922 0.0 0.0 -1.0
-2.6833333373069763 1.9543739358584087 9.159221649169922 0.0 0.0 -1.0
-2.493333339691162 1.5598942041397095 9.159221649169922 0.0 0.0 -1.0
-2.303333342075348 1.4231746196746826 9.159221649169922 0.0 -0.0 -1.0
-2.3666666746139526 0.6954673727353414 9.159221649169922 0.0 -0.0 -1.0
-2.4300000071525574 0.9988007148106893 9.159221649169922 0.0 0.0 -1.0
2.5572303533554077 -1.3500000437100728 10.0 -0.0 0.0 1.0
2.9741421143213906 -1.6500000357627869 10.0 -0.0 0.0 1.0
3.807965636253357 -2.250000019868215 10.0 -0.0 0.0 1.0
4.22487739721934 -2.550000011920929 10.0 -0.0 0.0 1.0
3.2643872102101645 -1.6500000357627869 10.0 0.0 0.0 1.0
3.6812989711761475 -1.950000027815501 10.0 0.0 0.0 1.0
3.4279656410217285 -1.3500000437100728 10.0 -0.0 0.0 1.0
3.8448774019877114 -1.6500000357627869 10.0 -0.0 0.0 1.0
-2.493333339691162 2.2577072779337564 10.0 0.0 0.0 1.0
3.863333284854889 -0.59333336353302 10.0 -0.0 0.0 1.0
3.863333284854889 0.013333320617675781 10.0 0.0 0.0 1.0
3.9899999499320984 0.3166666626930237 10.0 0.0 -0.0 1.0
4.179999947547913 1.2266666889190674 10.0 0.0 -0.0 1.0
4.211666613817215 1.6816667020320892 10.0 0.0 0.0 1.0
4.401666611433029 1.9850000441074371 10.0 -0.0 0.0 1.0
4.211666613817215 2.288333386182785 10.0 0.0 0.0 1.0
4.021666616201401 1.9850000441074371 10.0 0.0 0.0 1.0
3.863333284854889 1.8333333730697632 10.0 0.0 0.0 1.0
3.863333284854889 1.2266666889190674 10.0 0.0 0.0 1.0
3.9899999499320984 0.9233333468437195 10.0 0.0 0.0 1.0
4.496666610240936 -1.2633333206176758 10.0 0.0 -0.0 1.0
4.496666610240936 -0.8099999825159708 10.0 0.0 -0.0 1.0
4.369999945163727 -1.643333335717519 10.0 0.0 0.0 1.0
4.4333332777023315 -2.4733333388964334 10.0 0.0 0.0 1.0
4.4333332777023315 -2.0200000007947287 10.0 0.0 -0.0 1.0
4.496666610240936 1.4566667079925537 10.0 0.0 -0.0 1.0
4.496666610240936 1.9100000460942586 10.0 0.0 -0.0 1.0
4.369999945163727 1.0766666928927104 10.0 0.0 0.0 1.0
4.4333332777023315 0.246666689713796 10.0 0.0 0.0 1.0
4.4333332777023315 0.7000000278155009 10.0 0.0 -0.0 1.0
4.243333280086517 -1.5700000127156575 10.0 0.0 0.0 1.0
4.243333280086517 -1.1166666746139526 10.0 0.0 0.0 1.0
4.369999945163727 -0.7366666595141093 10.0 -0.0 0.0 1.0
4.306666612625122 0.0933333436648051 10.0 0.0 0.0 1.0
4.306666612625122 -0.35999999443689984 10.0 0.0 0.0 1.0
4.116666615009308 -0.3633333444595337 10.0 0.0 -0.0 1.0
4.116666615009308 0.08999999364217122 10.0 0.0 -0.0 1.0
3.9899999499320984 -0.7433333595593771 10.0 0.0 0.0 1.0
4.053333282470703 -1.5733333627382915 10.0 0.0 0.0 1.0
4.053333282470703 -1.1200000246365864 10.0 0.0 -0.0 1.0
-0.4806127647558848 -1.2750000456968944 10.0 -0.0 0.0 1.0
-1.0812622706095378 -1.4250000417232513 10.0 0.0 0.0 1.0
-0.838823546965917 -1.2750000456968944 10.0 0.0 -0.0 1.0
-2.2825612823168435 -1.7250000337759654 10.0 0.0 0.0 1.0
-1.8610171675682068 -1.5750000377496083 10.0 0.0 -0.0 1.0
-1.4078063865502675 -1.3500000437100728 10.0 0.0 -0.0 1.0
-1.7660171687602997 -1.3500000437100728 10.0 0.0 0.0 1.0
-0.8606127599875132 -2.1750000218550363 10.0 -0.0 0.0 1.0
-1.4612622658411663 -2.3250000178813934 10.0 0.0 0.0 1.0
-1.2188235421975453 -2.1750000218550363 10.0 0.0 -0.0 1.0
-2.662561277548472 -2.6250000099341073 10.0 0.0 0.0 1.0
-2.241017162799835 -2.4750000139077506 10.0 0.0 -0.0 1.0
-1.7878063817818959 -2.250000019868215 10.0 0.0 -0.0 1.0
-2.146017163991928 -2.250000019868215 10.0 0.0 0.0 1.0
-2.230122556289037 -2.0250000258286796 10.0 0.0 0.0 1.0
-1.871911774079005 -2.0250000258286796 10.0 0.0 0.0 1.0
-1.629473050435384 -1.8750000298023224 10.0 0.0 -0.0 1.0
-1.3029289344946544 -1.950000027815501 10.0 0.0 0.0 1.0
-0.9447181522846222 -1.950000027815501 10.0 0.0 -0.0 1.0
-0.4281740387280782 -1.5750000377496083 10.0 0.0 -0.0 1.0
-0.8497181534767151 -1.7250000337759654 10.0 0.0 0.0 1.0
1.668651928504308 -1.2750000456968944 10.0 -0.0 0.0 1.0
1.068002422650655 -1.4250000417232513 10.0 0.0 0.0 1.0
1.310441146294276 -1.2750000456968944 10.0 0.0 -0.0 1.0
-0.1332965890566508 -1.7250000337759654 10.0 0.0 0.0 1.0
0.2882475256919861 -1.5750000377496083 10.0 0.0 -0.0 1.0
0.7414583067099253 -1.3500000437100728 10.0 0.0 -0.0 1.0
0.3832475244998932 -1.3500000437100728 10.0 0.0 0.0 1.0
3.1957720120747886 -2.9250000019868216 10.0 0.0 0.0 1.0
4.036544064680736 -2.850000003973643 10.0 0.0 0.0 1.0
3.6173161268234253 -2.7750000059604645 10.0 0.0 0.0 1.0
2.570404370625814 -2.4750000139077506 10.0 0.0 0.0 1.0
3.4111764232317605 -2.400000015894572 10.0 0.0 0.0 1.0
2.9919484853744507 -2.3250000178813934 10.0 0.0 0.0 1.0
3.4088602463404336 -2.6250000099341073 10.0 0.0 -0.0 1.0
2.987316131591797 -2.7750000059604645 10.0 0.0 0.0 1.0
2.568088193734487 -2.700000007947286 10.0 0.0 0.0 1.0
1.305772026379903 -2.9250000019868216 10.0 0.0 0.0 1.0
2.14654407898585 -2.850000003973643 10.0 0.0 0.0 1.0
1.72731614112854 -2.7750000059604645 10.0 0.0 0.0 1.0
1.9450367291768391 -2.0250000258286796 10.0 0.0 0.0 1.0
2.785808781782786 -1.950000027815501 10.0 0.0 0.0 1.0
2.366580843925476 -1.8750000298023224 10.0 0.0 0.0 1.0
1.3196690877278645 -1.5750000377496083 10.0 0.0 0.0 1.0
2.1604411403338113 -1.50000003973643 10.0 0.0 0.0 1.0
1.7412132024765015 -1.4250000417232513 10.0 0.0 0.0 1.0
2.1581249634424844 -1.7250000337759654 10.0 0.0 -0.0 1.0
1.7365808486938477 -1.8750000298023224 10.0 0.0 0.0 1.0
1.3173529108365376 -1.8000000317891438 10.0 0.0 0.0 1.0
0.05503674348195394 -2.0250000258286796 10.0 0.0 0.0 1.0
0.8958087960879008 -1.950000027815501 10.0 0.0 0.0 1.0
0.4765808582305908 -1.8750000298023224 10.0 0.0 0.0 1.0
1.5188602606455486 -2.6250000099341073 10.0 0.0 -0.0 1.0
1.0973161458969116 -2.7750000059604645 10.0 0.0 0.0 1.0
0.6780882080396017 -2.700000007947286 10.0 0.0 0.0 1.0
2.783492604891459 -2.1750000218550363 10.0 0.0 -0.0 1.0
2.3619484901428223 -2.3250000178813934 10.0 0.0 0.0 1.0
1.9427205522855122 -2.250000019868215 10.0 0.0 0.0 1.0
0.6804043849309286 -2.4750000139077506 10.0 0.0 0.0 1.0
1.5211764375368755 -2.400000015894572 10.0 0.0 0.0 1.0
1.1019484996795654 -2.3250000178813934 10.0 0.0 0.0 1.0
0.8934926191965739 -2.1750000218550363 10.0 0.0 -0.0 1.0
0.471948504447937 -2.3250000178813934 10.0 0.0 0.0 1.0
0.05272056659062704 -2.250000019868215 10.0 0.0 0.0 1.0
-0.5842279593149821 -2.9250000019868216 10.0 0.0 0.0 1.0
0.2565440932909648 -2.850000003973643 10.0 0.0 0.0 1.0
-0.16268384456634521 -2.7750000059604645 10.0 0.0 0.0 1.0
-1.2095956007639568 -2.4750000139077506 10.0 0.0 0.0 1.0
-0.36882354815800983 -2.400000015894572 10.0 0.0 0.0 1.0
-0.7880514860153198 -2.3250000178813934 10.0 0.0 0.0 1.0
-0.37113972504933673 -2.6250000099341073 10.0 0.0 -0.0 1.0
-0.7926838397979736 -2.7750000059604645 10.0 0.0 0.0 1.0
-1.2119117776552837 -2.700000007947286 10.0 0.0 0.0 1.0
-2.474227945009867 -2.9250000019868216 10.0 0.0 0.0 1.0
-1.6334558924039204 -2.850000003973643 10.0 0.0 0.0 1.0
-2.0526838302612305 -2.7750000059604645 10.0 0.0 0.0 1.0
-2.9366666674613953 -0.8099999825159708 10.0 0.0 0.0 1.0
-2.9366666674613953 -1.2633333206176758 10.0 0.0 0.0 1.0
-2.8733333349227905 -2.0200000007947287 10.0 0.0 0.0 1.0
-2.8733333349227905 -2.4733333388964334 10.0 -0.0 0.0 1.0
-2.810000002384186 -1.643333335717519 10.0 0.0 0.0 1.0
-2.556666672229767 0.08999999364217122 10.0 0.0 0.0 1.0
-2.556666672229767 -0.3633333444595337 10.0 0.0 0.0 1.0
-2.493333339691162 -1.1200000246365864 10.0 0.0 0.0 1.0
-2.493333339691162 -1.5733333627382915 10.0 -0.0 0.0 1.0
-2.4300000071525574 -0.7433333595593771 10.0 0.0 0.0 1.0
-2.6833333373069763 -1.5700000127156575 10.0 0.0 0.0 1.0
-2.6833333373069763 -1.1166666746139526 10.0 0.0 -0.0 1.0
-2.810000002384186 -0.7366666595141093 10.0 0.0 0.0 1.0
-2.746666669845581 -0.35999999443689984 10.0 0.0 -0.0 1.0
-2.746666669845581 0.0933333436648051 10.0 0.0 -0.0 1.0
-2.9366666674613953 1.9100000460942586 10.0 0.0 0.0 1.0
-2.9366666674613953 1.4566667079925537 10.0 0.0 0.0 1.0
-2.8733333349227905 0.7000000278155009 10.0 0.0 0.0 1.0
-2.8733333349227905 0.246666689713796 10.0 -0.0 0.0 1.0
-2.810000002384186 1.0766666928927104 10.0 0.0 0.0 1.0
-2.303333342075348 -0.6389065583546957 10.0 0.0 0.0 1.0
-2.4300000071525574 0.22552027304967245 10.0 0.0 0.0 1.0
-2.303333342075348 -0.12338626384735107 10.0 -0.0 0.0 1.0
-2.6200000047683716 1.135520299275716 10.0 0.0 0.0 1.0
-2.6833333373069763 1.9543739358584087 10.0 0.0 0.0 1.0
-2.493333339691162 1.5598942041397095 10.0 -0.0 0.0 1.0
-2.303333342075348 1.4231746196746826 10.0 -0.0 0.0 1.0
-2.3666666746139526 0.6954673727353414 10.0 -0.0 0.0 1.0
-2.4300000071525574 0.9988007148106893 10.0 0.0 0.0 1.0
4.4333332777023315 2.440000057220459 9.579610824584961 0.0 1.0 0.0
4.179999947547913 2.440000057220459 9.299351374308268 0.0 1.0 0.0
3.9266666173934937 2.440000057220459 9.579610824584961 0.0 1.0 0.0
4.179999947547913 2.440000057220459 9.859870274861654 0.0 1.0 -0.0
-2.8733333349227905 2.440000057220459 9.579610824584961 0.0 1.0 0.0
-2.6200000047683716 2.440000057220459 9.299351374308268 0.0 1.0 0.0
-2.3666666746139526 2.440000057220459 9.579610824584961 0.0 1.0 -0.0
-2.6200000047683716 2.440000057220459 9.859870274861654 0.0 1.0 -0.0
3.9299999475479126 -3.0 9.964967568715414 -0.0 -1.0 0.0
3.299999952316284 -3.0 9.964967568715414 0.0 -1.0 0.0
2.98499995470047 -3.0 9.89490270614624 0.0 -1.0 0.0
1.409999966621399 -3.0 9.964967568715414 -0.0 -1.0 -0.0
2.3549999594688416 -3.0 9.89490270614624 0.0 -1.0 0.0
2.0399999618530273 -3.0 9.964967568715414 -0.0 -1.0 0.0
2.0399999618530273 -3.0 9.78980541229248 0.0 -1.0 0.0
1.0949999690055847 -3.0 9.754772981007894 0.0 -1.0 0.0
1.409999966621399 -3.0 9.859870274861654 0.0 -1.0 0.0
-2.3700000047683716 -3.0 9.964967568715414 -0.0 -1.0 -0.0
-1.7400000095367432 -3.0 9.964967568715414 -0.0 -1.0 0.0
-1.425000011920929 -3.0 9.89490270614624 0.0 -1.0 0.0
-0.48000001907348633 -3.0 9.78980541229248 0.0 -1.0 0.0
0.1499999761581421 -3.0 9.719740549723307 0.0 -1.0 0.0
0.4649999737739563 -3.0 9.824837843577066 0.0 -1.0 0.0
0.1499999761581421 -3.0 9.964967568715414 -0.0 -1.0 0.0
-0.48000001907348633 -3.0 9.964967568715414 0.0 -1.0 0.0
-0.7950000166893005 -3.0 9.89490270614624 0.0 -1.0 0.0
0.1499999761581421 -3.0 9.579610824584961 0.0 -1.0 0.0
-0.7950000166893005 -3.0 9.544578393300375 0.0 -1.0 0.0
-0.48000001907348633 -3.0 9.649675687154135 0.0 -1.0 0.0
-1.7400000095367432 -3.0 9.439481099446615 0.0 -1.0 0.0
-2.5275000035762787 -3.0 9.702224334081015 -0.0 -1.0 0.0
-2.842500001192093 -3.0 9.527062177658081 -0.0 -1.0 0.0
-2.5275000035762787 -3.0 9.281835158665976 0.0 -1.0 0.0
-2.2125000059604645 -3.0 9.456997315088907 0.0 -1.0 0.0
-2.3700000047683716 -3.0 9.859870274861654 -0.0 -1.0 -0.0
-1.425000011920929 -3.0 9.614643255869547 0.0 -1.0 0.0
-1.7400000095367432 -3.0 9.78980541229248 -0.0 -1.0 0.0
4.559999942779541 1.9866667191187541 9.964967568715414 1.0 0.0 0.0
4.559999942779541 1.533333381017049 9.964967568715414 1.0 0.0 -0.0
4.559999942779541 1.3066667119661968 9.89490270614624 1.0 0.0 0.0
4.559999942779541 0.17333336671193442 9.964967568715414 1.0 0.0 0.0
4.559999942779541 0.8533333738644918 9.89490270614624 1.0 -0.0 0.0
4.559999942779541 0.6266667048136393 9.964967568715414 1.0 0.0 0.0
4.559999942779541 0.6266667048136393 9.78980541229248 1.0 0.0 0.0
4.559999942779541 -0.05333330233891805 9.754772981007894 1.0 0.0 0.0
4.559999942779541 0.17333336671193442 9.859870274861654 1.0 0.0 -0.0
4.559999942779541 -2.546666661898295 9.964967568715414 1.0 0.0 0.0
4.559999942779541 -2.0933333237965903 9.964967568715414 1.0 0.0 0.0
4.559999942779541 -1.8666666547457378 9.89490270614624 1.0 -0.0 0.0
4.559999942779541 -1.1866666475931804 9.78980541229248 1.0 -0.0 0.0
4.559999942779541 -0.7333333094914755 9.719740549723307 1.0 0.0 0.0
4.559999942779541 -0.5066666404406229 9.824837843577066 1.0 0.0 -0.0
4.559999942779541 -0.7333333094914755 9.964967568715414 1.0 0.0 0.0
4.559999942779541 -1.1866666475931804 9.964967568715414 1.0 0.0 -0.0
4.559999942779541 -1.4133333166440327 9.89490270614624 1.0 0.0 0.0
4.559999942779541 -0.7333333094914755 9.579610824584961 1.0 0.0 0.0
4.559999942779541 -1.4133333166440327 9.544578393300375 1.0 0.0 0.0
4.559999942779541 -1.1866666475931804 9.649675687154135 1.0 0.0 -0.0
4.559999942779541 -2.0933333237965903 9.439481099446615 1.0 0.0 0.0
4.559999942779541 -2.7733333309491477 9.614643255869547 1.0 0.0 0.0
4.559999942779541 -2.546666661898295 9.369416236877441 1.0 0.0 0.0
4.559999942779541 -2.546666661898295 9.859870274861654 1.0 0.0 0.0
4.559999942779541 -1.8666666547457378 9.614643255869547 1.0 -0.0 0.0
4.559999942779541 -2.0933333237965903 9.78980541229248 1.0 0.0 0.0
-3.0 -2.546666661898295 9.964967568715414 -1.0 0.0 0.0
-3.0 -2.0933333237965903 9.964967568715414 -1.0 0.0 0.0
-3.0 -1.8666666547457378 9.89490270614624 -1.0 0.0 -0.0
-3.0 -0.7333333094914755 9.964967568715414 -1.0 0.0 0.0
-3.0 -1.4133333166440327 9.89490270614624 -1.0 -0.0 0.0
-3.0 -1.1866666475931804 9.964967568715414 -1.0 0.0 0.0
-3.0 -1.1866666475931804 9.78980541229248 -1.0 0.0 -0.0
-3.0 -0.5066666404406229 9.754772981007894 -1.0 0.0 -0.0
-3.0 -0.7333333094914755 9.859870274861654 -1.0 0.0 0.0
-3.0 1.9866667191187541 9.964967568715414 -1.0 0.0 0.0
-3.0 1.533333381017049 9.964967568715414 -1.0 0.0 0.0
-3.0 1.3066667119661968 9.89490270614624 -1.0 -0.0 0.0
-3.0 0.6266667048136393 9.78980541229248 -1.0 -0.0 0.0
-3.0 0.17333336671193442 9.719740549723307 -1.0 0.0 -0.0
-3.0 -0.05333330233891805 9.824837843577066 -1.0 0.0 0.0
-3.0 0.17333336671193442 9.964967568715414 -1.0 0.0 0.0
-3.0 0.6266667048136393 9.964967568715414 -1.0 0.0 0.0
-3.0 0.8533333738644918 9.89490270614624 -1.0 0.0 -0.0
-3.0 0.17333336671193442 9.579610824584961 -1.0 0.0 -0.0
-3.0 0.8533333738644918 9.544578393300375 -1.0 0.0 -0.0
-3.0 0.6266667048136393 9.649675687154135 -1.0 0.0 0.0
-3.0 1.533333381017049 9.439481099446615 -1.0 0.0 0.0
-3.0 2.2133333881696067 9.614643255869547 -1.0 0.0 0.0
-3.0 1.9866667191187541 9.369416236877441 -1.0 0.0 0.0
-3.0 1.9866667191187541 9.859870274861654 -1.0 0.0 0.0
-3.0 1.3066667119661968 9.614643255869547 -1.0 -0.0 0.0
-3.0 1.533333381017049 9.78980541229248 -1.0 0.0 0.0
-1.7366666793823242 2.288333386182785 10.0 -0.0 0.0 1.0
-0.9816666841506958 1.9850000441074371 10.0 -0.0 0.0 1.0
-1.2333333492279053 2.288333386182785 10.0 0.0 0.0 1.0
-0.22666668891906738 1.3783333599567413 10.0 -0.0 0.0 1.0
0.528333306312561 1.0750000178813934 10.0 -0.0 0.0 1.0
0.27666664123535156 1.3783333599567413 10.0 0.0 0.0 1.0
0.27666664123535156 1.6816667020320892 10.0 0.0 0.0 1.0
-0.47833335399627686 1.9850000441074371 10.0 0.0 0.0 1.0
-0.22666668891906738 1.6816667020320892 10.0 0.0 0.0 1.0
-0.22666668891906738 2.288333386182785 10.0 -0.0 0.0 1.0
0.528333306312561 1.9850000441074371 10.0 -0.0 0.0 1.0
0.27666664123535156 2.288333386182785 10.0 0.0 0.0 1.0
1.2833333015441895 0.46833333373069763 10.0 -0.0 0.0 1.0
2.038333296775818 0.16499999165534973 10.0 -0.0 0.0 1.0
1.7866666316986084 0.46833333373069763 10.0 0.0 0.0 1.0
2.7933332920074463 -0.44166669249534607 10.0 -0.0 0.0 1.0
3.5483332872390747 -0.745000034570694 10.0 -0.0 0.0 1.0
3.2966666221618652 -0.44166669249534607 10.0 0.0 0.0 1.0
3.2966666221618652 -0.13833335041999817 10.0 0.0 0.0 1.0
2.541666626930237 0.16499999165534973 10.0 0.0 0.0 1.0
2.7933332920074463 -0.13833335041999817 10.0 0.0 0.0 1.0
2.7933332920074463 0.46833333373069763 10.0 -0.0 0.0 1.0
3.5483332872390747 0.16499999165534973 10.0 -0.0 0.0 1.0
3.2966666221618652 0.46833333373069763 10.0 0.0 0.0 1.0
1.7866666316986084 1.6816667020320892 10.0 0.0 0.0 1.0
1.03166663646698 1.9850000441074371 10.0 0.0 0.0 1.0
1.2833333015441895 1.6816667020320892 10.0 0.0 0.0 1.0
1.7866666316986084 0.7716666758060455 10.0 0.0 0.0 1.0
1.03166663646698 1.0750000178813934 10.0 0.0 0.0 1.0
1.2833333015441895 0.7716666758060455 10.0 0.0 0.0 1.0
1.2833333015441895 1.3783333599567413 10.0 0.0 0.0 1.0
1.7866666316986084 1.3783333599567413 10.0 0.0 0.0 1.0
2.038333296775818 1.0750000178813934 10.0 -0.0 0.0 1.0
3.2966666221618652 0.7716666758060455 10.0 0.0 0.0 1.0
2.541666626930237 1.0750000178813934 10.0 0.0 0.0 1.0
2.7933332920074463 0.7716666758060455 10.0 0.0 0.0 1.0
1.2833333015441895 2.288333386182785 10.0 -0.0 0.0 1.0
2.038333296775818 1.9850000441074371 10.0 -0.0 0.0 1.0
1.7866666316986084 2.288333386182785 10.0 0.0 0.0 1.0
2.7933332920074463 1.3783333599567413 10.0 -0.0 0.0 1.0
3.5483332872390747 1.0750000178813934 10.0 -0.0 0.0 1.0
3.2966666221618652 1.3783333599567413 10.0 0.0 0.0 1.0
3.2966666221618652 1.6816667020320892 10.0 0.0 0.0 1.0
2.541666626930237 1.9850000441074371 10.0 0.0 0.0 1.0
2.7933332920074463 1.6816667020320892 10.0 0.0 0.0 1.0
2.7933332920074463 2.288333386182785 10.0 -0.0 0.0 1.0
3.5483332872390747 1.9850000441074371 10.0 -0.0 0.0 1.0
3.2966666221618652 2.288333386182785 10.0 0.0 0.0 1.0
1.7003185947736104 -0.9194533030192057 10.0 -0.0 0.0 1.0
1.3421078125635784 -0.6616931557655334 10.0 0.0 0.0 1.0
1.1630024214585621 -0.48723988731702167 10.0 0.0 0.0 1.0
0.26747546593348187 0.1115872859954834 10.0 0.0 0.0 1.0
0.80479163924853 -0.2522663374741872 10.0 0.0 0.0 1.0
0.625686248143514 -0.10059966643651326 10.0 0.0 0.0 1.0
0.625686248143514 -0.03223987420399984 10.0 0.0 0.0 1.0
0.08837007482846577 0.3771869440873464 10.0 0.0 0.0 1.0
0.26747546593348187 0.17994707822799683 10.0 0.0 0.0 1.0
-0.44894609848658246 0.8777601520220438 10.0 0.0 0.0 1.0
-0.9862622718016306 1.28718697031339 10.0 0.0 0.0 1.0
-0.8071568806966146 1.0899471044540405 10.0 0.0 0.0 1.0
-1.523578445116679 1.7421869834264119 10.0 0.0 0.0 1.0
-2.060894618431727 2.1060406068960824 10.0 0.0 0.0 1.0
-1.881789227326711 1.8632275462150574 10.0 -0.0 0.0 1.0
-1.881789227326711 1.7265079617500305 10.0 0.0 0.0 1.0
-1.3444730540116627 1.453800727923711 10.0 0.0 0.0 1.0
-1.523578445116679 1.605467398961385 10.0 0.0 0.0 1.0
-1.881789227326711 1.658148169517517 10.0 0.0 0.0 1.0
-1.3444730540116627 1.2942945460478466 10.0 0.0 0.0 1.0
-1.523578445116679 1.4459612170855205 10.0 0.0 0.0 1.0
-0.8071568806966146 0.907654325167338 10.0 0.0 0.0 1.0
-0.26984070738156635 0.5665872991085052 10.0 0.0 0.0 1.0
-0.44894609848658246 0.741040567557017 10.0 0.0 0.0 1.0
-0.44894609848658246 0.8094003597895304 10.0 0.0 0.0 1.0
-0.9862622718016306 1.1048941910266876 10.0 0.0 0.0 1.0
-0.8071568806966146 0.9760141173998514 10.0 0.0 0.0 1.0
-1.523578445116679 -1.0711199740568798 10.0 0.0 0.0 1.0
-1.881789227326711 -1.0711199740568798 10.0 0.0 0.0 1.0
-2.060894618431727 -0.8133598268032074 10.0 0.0 0.0 1.0
-0.44894609848658246 -1.0711199740568798 10.0 0.0 0.0 1.0
-0.8071568806966146 -1.0711199740568798 10.0 0.0 0.0 1.0
-0.9862622718016306 -0.8133598268032074 10.0 0.0 0.0 1.0
-1.881789227326711 -0.5555996795495352 10.0 -0.0 0.0 1.0
-1.3444730540116627 -0.8133598268032074 10.0 -0.0 0.0 1.0
-1.523578445116679 -0.5555996795495352 10.0 0.0 0.0 1.0
-1.523578445116679 -0.29783953229586285 10.0 0.0 0.0 1.0
-1.881789227326711 -0.29783953229586285 10.0 0.0 0.0 1.0
-2.060894618431727 -0.04007938504219055 10.0 0.0 0.0 1.0
0.625686248143514 -1.0711199740568798 10.0 0.0 0.0 1.0
0.26747546593348187 -1.0711199740568798 10.0 0.0 0.0 1.0
0.08837007482846577 -0.8133598268032074 10.0 0.0 0.0 1.0
1.7003185947736104 -1.0711199740568798 10.0 0.0 0.0 1.0
1.3421078125635784 -1.0711199740568798 10.0 0.0 0.0 1.0
1.1630024214585621 -0.8133598268032074 10.0 0.0 0.0 1.0
0.26747546593348187 -0.5555996795495352 10.0 -0.0 0.0 1.0
0.80479163924853 -0.8133598268032074 10.0 -0.0 0.0 1.0
0.625686248143514 -0.5555996795495352 10.0 0.0 0.0 1.0
0.625686248143514 -0.29783953229586285 10.0 0.0 0.0 1.0
0.26747546593348187 -0.29783953229586285 10.0 0.0 0.0 1.0
0.08837007482846577 -0.04007938504219055 10.0 0.0 0.0 1.0
-1.881789227326711 0.21768076221148172 10.0 -0.0 0.0 1.0
-1.3444730540116627 -0.04007938504219055 10.0 -0.0 0.0 1.0
-1.523578445116679 0.21768076221148172 10.0 0.0 0.0 1.0
-0.8071568806966146 -0.5555996795495352 10.0 -0.0 0.0 1.0
-0.26984070738156635 -0.8133598268032074 10.0 -0.0 0.0 1.0
-0.44894609848658246 -0.5555996795495352 10.0 0.0 0.0 1.0
-0.44894609848658246 -0.29783953229586285 10.0 0.0 0.0 1.0
-0.9862622718016306 -0.04007938504219055 10.0 0.0 0.0 1.0
-0.8071568806966146 -0.29783953229586285 10.0 0.0 0.0 1.0
-0.8071568806966146 0.21768076221148172 10.0 -0.0 0.0 1.0
-0.26984070738156635 -0.04007938504219055 10.0 -0.0 0.0 1.0
-0.44894609848658246 0.21768076221148172 10.0 0.0 0.0 1.0
-1.523578445116679 0.475440909465154 10.0 0.0 0.0 1.0
-1.881789227326711 0.475440909465154 10.0 0.0 0.0 1.0
-2.060894618431727 0.7332010567188263 10.0 0.0 0.0 1.0
-0.44894609848658246 0.475440909465154 10.0 0.0 0.0 1.0
-0.8071568806966146 0.475440909465154 10.0 0.0 0.0 1.0
-0.9862622718016306 0.7332010567188263 10.0 0.0 0.0 1.0
-1.881789227326711 0.9909612039724985 10.0 -0.0 0.0 1.0
-1.3444730540116627 0.7332010567188263 10.0 -0.0 0.0 1.0
-1.523578445116679 0.9909612039724985 10.0 0.0 0.0 1.0
-1.523578445116679 1.2487213512261708 10.0 0.0 0.0 1.0
-1.881789227326711 1.2487213512261708 10.0 0.0 0.0 1.0
-2.060894618431727 1.5064814984798431 10.0 0.0 0.0 1.0
-1.8092279533545177 2.136666715145111 10.0 0.0 0.0 1.0
-1.4510171711444855 1.8333333730697632 10.0 0.0 0.0 1.0
-1.1267892320950825 1.6816667020320892 10.0 0.0 -0.0 1.0
-0.37638482451438904 0.9233333468437195 10.0 0.0 0.0 1.0
-0.8411397238572439 1.3783333599567413 10.0 0.0 0.0 1.0
-0.5894730587800344 1.2266666889190674 10.0 0.0 -0.0 1.0
-0.37178923686345416 1.2266666889190674 10.0 0.0 -0.0 1.0
0.23808821042378744 0.7716666758060455 10.0 0.0 0.0 1.0
-0.15870100259780884 0.9233333468437195 10.0 0.0 0.0 1.0
0.34003673990567523 0.3166666626930237 10.0 0.0 0.0 1.0
0.6982475221157074 0.013333320617675781 10.0 0.0 0.0 1.0
1.0224754611651103 -0.13833335041999817 10.0 0.0 -0.0 1.0
1.7728798687458038 -0.8966667056083679 10.0 0.0 0.0 1.0
1.308124969402949 -0.44166669249534607 10.0 0.0 0.0 1.0
1.5597916344801586 -0.59333336353302 10.0 0.0 -0.0 1.0
1.7774754563967388 -0.59333336353302 10.0 0.0 -0.0 1.0
2.3873529036839805 -1.0483333766460419 10.0 0.0 0.0 1.0
1.990563690662384 -0.8966667056083679 10.0 0.0 0.0 1.0
2.4984926084677377 -0.8966667056083679 10.0 0.0 0.0 1.0
1.8160538872083027 -0.44166669249534607 10.0 0.0 0.0 1.0
2.1402818262577057 -0.59333336353302 10.0 0.0 -0.0 1.0
1.0610538919766743 0.013333320617675781 10.0 0.0 0.0 1.0
0.4511764446894328 0.46833333373069763 10.0 0.0 0.0 1.0
0.847965657711029 0.3166666626930237 10.0 0.0 0.0 1.0
1.0656494796276093 0.3166666626930237 10.0 0.0 -0.0 1.0
1.530404378970464 -0.13833335041999817 10.0 0.0 -0.0 1.0
1.2787377138932545 0.013333320617675781 10.0 0.0 0.0 1.0
1.210772027571996 0.3166666626930237 10.0 0.0 0.0 1.0
1.5689828097820282 0.013333320617675781 10.0 0.0 0.0 1.0
1.8932107488314311 -0.13833335041999817 10.0 0.0 -0.0 1.0
2.6436151564121246 -0.8966667056083679 10.0 0.0 0.0 1.0
2.1788602570692697 -0.44166669249534607 10.0 0.0 0.0 1.0
2.430526922146479 -0.59333336353302 10.0 0.0 -0.0 1.0
2.6482107440630593 -0.59333336353302 10.0 0.0 -0.0 1.0
3.2580881913503013 -1.0483333766460419 10.0 0.0 0.0 1.0
2.861298978328705 -0.8966667056083679 10.0 0.0 0.0 1.0
-2.240000009536743 1.1842813144127529 7.2510504722595215 -1.0 -0.0 0.0
-2.240000009536743 1.1842813144127529 7.632684707641602 -1.0 0.0 0.0
-2.240000009536743 1.313161388039589 7.823501825332642 -1.0 0.0 0.0
-2.240000009536743 1.1842813144127529 8.777587413787842 -1.0 0.0 0.0
-2.240000009536743 1.313161388039589 8.205136060714722 -1.0 0.0 -0.0
-2.240000009536743 1.1842813144127529 8.395953178405762 -1.0 0.0 0.0
-2.240000009536743 1.5064814984798431 8.395953178405762 -1.0 0.0 0.0
-2.240000009536743 1.5709215352932613 8.968404531478882 -1.0 0.0 0.0
-2.240000009536743 1.377601424853007 8.777587413787842 -1.0 0.0 0.0
-2.240000009536743 0.41100087265173596 4.961245059967041 -1.0 -0.0 0.0
-2.240000009536743 0.41100087265173596 5.342879295349121 -1.0 0.0 0.0
-2.240000009536743 0.5398809462785721 5.533696413040161 -1.0 0.0 0.0
-2.240000009536743 0.41100087265173596 6.487782001495361 -1.0 0.0 0.0
-2.240000009536743 0.5398809462785721 5.915330648422241 -1.0 0.0 -0.0
-2.240000009536743 0.41100087265173596 6.106147766113281 -1.0 0.0 0.0
-2.240000009536743 0.7332010567188263 6.106147766113281 -1.0 0.0 0.0
-2.240000009536743 0.7976410935322443 6.678599119186401 -1.0 0.0 0.0
-2.240000009536743 0.6043209830919901 6.487782001495361 -1.0 0.0 0.0
-2.240000009536743 1.0554012407859166 8.777587413787842 -1.0 0.0 -0.0
-2.240000009536743 1.0554012407859166 8.395953178405762 -1.0 0.0 0.0
-2.240000009536743 0.9265211671590805 8.205136060714722 -1.0 0.0 0.0
-2.240000009536743 1.0554012407859166 7.2510504722595215 -1.0 -0.0 -0.0
-2.240000009536743 0.9265211671590805 7.823501825332642 -1.0 0.0 0.0
-2.240000009536743 1.0554012407859166 7.632684707641602 -1.0 0.0 -0.0
-2.240000009536743 0.7332010567188263 7.632684707641602 -1.0 0.0 0.0
-2.240000009536743 0.6687610199054083 7.0602333545684814 -1.0 0.0 0.0
-2.240000009536743 0.8620811303456625 7.2510504722595215 -1.0 0.0 0.0
-2.240000009536743 0.41100087265173596 7.2510504722595215 -1.0 -0.0 0.0
-2.240000009536743 0.41100087265173596 7.632684707641602 -1.0 0.0 0.0
-2.240000009536743 0.5398809462785721 7.823501825332642 -1.0 0.0 0.0
-2.240000009536743 0.41100087265173596 8.777587413787842 -1.0 0.0 0.0
-2.240000009536743 0.5398809462785721 8.205136060714722 -1.0 0.0 -0.0
-2.240000009536743 0.41100087265173596 8.395953178405762 -1.0 0.0 0.0
-2.240000009536743 0.7332010567188263 8.395953178405762 -1.0 0.0 0.0
-2.240000009536743 0.7976410935322443 8.968404531478882 -1.0 0.0 0.0
-2.240000009536743 0.6043209830919901 8.777587413787842 -1.0 0.0 0.0
-2.240000009536743 -0.3622795691092809 2.6714396476745605 -1.0 -0.0 0.0
-2.240000009536743 -0.3622795691092809 3.0530738830566406 -1.0 0.0 0.0
-2.240000009536743 -0.23339949548244476 3.2438910007476807 -1.0 0.0 0.0
-2.240000009536743 -0.3622795691092809 4.197976589202881 -1.0 0.0 0.0
-2.240000009536743 -0.23339949548244476 3.6255252361297607 -1.0 0.0 -0.0
-2.240000009536743 -0.3622795691092809 3.816342353820801 -1.0 0.0 0.0
-2.240000009536743 -0.04007938504219055 3.816342353820801 -1.0 0.0 0.0
-2.240000009536743 0.02436065177122752 4.388793706893921 -1.0 0.0 0.0
-2.240000009536743 -0.1689594586690267 4.197976589202881 -1.0 0.0 0.0
-2.240000009536743 -1.1355600108702977 0.3816342353820801 -1.0 -0.0 0.0
-2.240000009536743 -1.1355600108702977 0.7632684707641602 -1.0 0.0 0.0
-2.240000009536743 -1.0066799372434616 0.9540855884552002 -1.0 0.0 0.0
-2.240000009536743 -1.1355600108702977 1.9081711769104004 -1.0 0.0 0.0
-2.240000009536743 -1.0066799372434616 1.3357198238372803 -1.0 0.0 -0.0
-2.240000009536743 -1.1355600108702977 1.5265369415283203 -1.0 0.0 0.0
-2.240000009536743 -0.8133598268032074 1.5265369415283203 -1.0 0.0 0.0
-2.240000009536743 -0.7489197899897894 2.0989882946014404 -1.0 0.0 0.0
-2.240000009536743 -0.9422399004300436 1.9081711769104004 -1.0 0.0 0.0
-2.240000009536743 -0.49115964273611706 4.197976589202881 -1.0 0.0 -0.0
-2.240000009536743 -0.49115964273611706 3.816342353820801 -1.0 0.0 0.0
-2.240000009536743 -0.6200397163629532 3.6255252361297607 -1.0 0.0 0.0
-2.240000009536743 -0.49115964273611706 2.6714396476745605 -1.0 -0.0 -0.0
-2.240000009536743 -0.6200397163629532 3.2438910007476807 -1.0 0.0 0.0
-2.240000009536743 -0.49115964273611706 3.0530738830566406 -1.0 0.0 -0.0
-2.240000009536743 -0.8133598268032074 3.0530738830566406 -1.0 0.0 0.0
-2.240000009536743 -0.8777998636166254 2.4806225299835205 -1.0 0.0 0.0
-2.240000009536743 -0.6844797531763712 2.6714396476745605 -1.0 0.0 0.0
-2.240000009536743 -1.1355600108702977 2.6714396476745605 -1.0 -0.0 0.0
-2.240000009536743 -1.1355600108702977 3.0530738830566406 -1.0 0.0 0.0
-2.240000009536743 -1.0066799372434616 3.2438910007476807 -1.0 0.0 0.0
-2.240000009536743 -1.1355600108702977 4.197976589202881 -1.0 0.0 0.0
-2.240000009536743 -1.0066799372434616 3.6255252361297607 -1.0 0.0 -0.0
-2.240000009536743 -1.1355600108702977 3.816342353820801 -1.0 0.0 0.0
-2.240000009536743 -0.8133598268032074 3.816342353820801 -1.0 0.0 0.0
-2.240000009536743 -0.7489197899897894 4.388793706893921 -1.0 0.0 0.0
-2.240000009536743 -0.9422399004300436 4.197976589202881 -1.0 0.0 0.0
-2.240000009536743 0.2821207990248998 8.777587413787842 -1.0 0.0 -0.0
-2.240000009536743 0.2821207990248998 8.395953178405762 -1.0 0.0 0.0
-2.240000009536743 0.15324072539806366 8.205136060714722 -1.0 0.0 0.0
-2.240000009536743 0.2821207990248998 7.2510504722595215 -1.0 -0.0 -0.0
-2.240000009536743 0.15324072539806366 7.823501825332642 -1.0 0.0 0.0
-2.240000009536743 0.2821207990248998 7.632684707641602 -1.0 0.0 -0.0
-2.240000009536743 -0.04007938504219055 7.632684707641602 -1.0 0.0 0.0
-2.240000009536743 -0.10451942185560863 7.0602333545684814 -1.0 0.0 0.0
-2.240000009536743 0.08880068858464558 7.2510504722595215 -1.0 0.0 0.0
-2.240000009536743 0.2821207990248998 6.487782001495361 -1.0 0.0 -0.0
-2.240000009536743 0.2821207990248998 6.106147766113281 -1.0 0.0 0.0
-2.240000009536743 0.15324072539806366 5.915330648422241 -1.0 0.0 0.0
-2.240000009536743 0.2821207990248998 4.961245059967041 -1.0 -0.0 -0.0
-2.240000009536743 0.15324072539806366 5.533696413040161 -1.0 0.0 0.0
-2.240000009536743 0.2821207990248998 5.342879295349121 -1.0 0.0 -0.0
-2.240000009536743 -0.04007938504219055 5.342879295349121 -1.0 0.0 0.0
-2.240000009536743 -0.10451942185560863 4.770427942276001 -1.0 0.0 0.0
-2.240000009536743 0.08880068858464558 4.961245059967041 -1.0 0.0 0.0
-2.240000009536743 -0.3622795691092809 4.961245059967041 -1.0 0.0 0.0
-2.240000009536743 -0.23339949548244476 5.533696413040161 -1.0 0.0 0.0
-2.240000009536743 -0.3622795691092809 5.342879295349121 -1.0 0.0 0.0
-2.240000009536743 -0.04007938504219055 6.106147766113281 -1.0 0.0 0.0
-2.240000009536743 0.02436065177122752 6.678599119186401 -1.0 0.0 0.0
-2.240000009536743 -0.1689594586690267 6.487782001495361 -1.0 0.0 0.0
-2.240000009536743 -0.3622795691092809 6.487782001495361 -1.0 0.0 0.0
-2.240000009536743 -0.23339949548244476 5.915330648422241 -1.0 0.0 -0.0
-2.240000009536743 -0.3622795691092809 6.106147766113281 -1.0 0.0 0.0
-2.240000009536743 -0.49115964273611706 6.487782001495361 -1.0 0.0 -0.0
-2.240000009536743 -0.49115964273611706 6.106147766113281 -1.0 0.0 0.0
-2.240000009536743 -0.6200397163629532 5.915330648422241 -1.0 0.0 0.0
-2.240000009536743 -0.49115964273611706 4.961245059967041 -1.0 -0.0 -0.0
-2.240000009536743 -0.6200397163629532 5.533696413040161 -1.0 0.0 0.0
-2.240000009536743 -0.49115964273611706 5.342879295349121 -1.0 0.0 -0.0
-2.240000009536743 -0.8133598268032074 5.342879295349121 -1.0 0.0 0.0
-2.240000009536743 -0.8777998636166254 4.770427942276001 -1.0 0.0 0.0
-2.240000009536743 -0.6844797531763712 4.961245059967041 -1.0 0.0 0.0
-2.240000009536743 -0.3622795691092809 7.2510504722595215 -1.0 -0.0 0.0
-2.240000009536743 -0.3622795691092809 7.632684707641602 -1.0 0.0 0.0
-2.240000009536743 -0.23339949548244476 7.823501825332642 -1.0 0.0 0.0
-2.240000009536743 -0.3622795691092809 8.777587413787842 -1.0 0.0 0.0
-2.240000009536743 -0.23339949548244476 8.205136060714722 -1.0 0.0 -0.0
-2.240000009536743 -0.3622795691092809 8.395953178405762 -1.0 0.0 0.0
-2.240000009536743 -0.04007938504219055 8.395953178405762 -1.0 0.0 0.0
-2.240000009536743 0.02436065177122752 8.968404531478882 -1.0 0.0 0.0
-2.240000009536743 -0.1689594586690267 8.777587413787842 -1.0 0.0 0.0
-2.240000009536743 -1.1355600108702977 4.961245059967041 -1.0 -0.0 0.0
-2.240000009536743 -1.1355600108702977 5.342879295349121 -1.0 0.0 0.0
-2.240000009536743 -1.0066799372434616 5.533696413040161 -1.0 0.0 0.0
-2.240000009536743 -1.1355600108702977 6.487782001495361 -1.0 0.0 0.0
-2.240000009536743 -1.0066799372434616 5.915330648422241 -1.0 0.0 -0.0
-2.240000009536743 -1.1355600108702977 6.106147766113281 -1.0 0.0 0.0
-2.240000009536743 -0.8133598268032074 6.106147766113281 -1.0 0.0 0.0
-2.240000009536743 -0.7489197899897894 6.678599119186401 -1.0 0.0 0.0
-2.240000009536743 -0.9422399004300436 6.487782001495361 -1.0 0.0 0.0
-2.240000009536743 -0.49115964273611706 8.777587413787842 -1.0 0.0 -0.0
-2.240000009536743 -0.49115964273611706 8.395953178405762 -1.0 0.0 0.0
-2.240000009536743 -0.6200397163629532 8.205136060714722 -1.0 0.0 0.0
-2.240000009536743 -0.49115964273611706 7.2510504722595215 -1.0 -0.0 -0.0
-2.240000009536743 -0.6200397163629532 7.823501825332642 -1.0 0.0 0.0
-2.240000009536743 -0.49115964273611706 7.632684707641602 -1.0 0.0 -0.0
-2.240000009536743 -0.8133598268032074 7.632684707641602 -1.0 0.0 0.0
-2.240000009536743 -0.8777998636166254 7.0602333545684814 -1.0 0.0 0.0
-2.240000009536743 -0.6844797531763712 7.2510504722595215 -1.0 0.0 0.0
-2.240000009536743 -1.1355600108702977 7.2510504722595215 -1.0 -0.0 0.0
-2.240000009536743 -1.1355600108702977 7.632684707641602 -1.0 0.0 0.0
-2.240000009536743 -1.0066799372434616 7.823501825332642 -1.0 0.0 0.0
-2.240000009536743 -1.1355600108702977 8.777587413787842 -1.0 0.0 0.0
-2.240000009536743 -1.0066799372434616 8.205136060714722 -1.0 0.0 -0.0
-2.240000009536743 -1.1355600108702977 8.395953178405762 -1.0 0.0 0.0
-2.240000009536743 -0.8133598268032074 8.395953178405762 -1.0 0.0 0.0
-2.240000009536743 -0.7489197899897894 8.968404531478882 -1.0 0.0 0.0
-2.240000009536743 -0.9422399004300436 8.777587413787842 -1.0 0.0 0.0
-2.240000009536743 2.42860675851504 0.3816342353820801 -1.0 0.0 0.0
-2.240000009536743 2.4058201611042023 0.9540855884552002 -1.0 0.0 0.0
-2.240000009536743 2.42860675851504 0.7632684707641602 -1.0 0.0 -0.0
-2.240000009536743 2.3716402649879456 1.5265369415283203 -1.0 0.0 0.0
-2.240000009536743 2.348853667577108 1.9081711769104004 -1.0 0.0 0.0
-2.240000009536743 2.3830335636933646 2.0989882946014404 -1.0 0.0 0.0
-2.240000009536743 2.42860675851504 1.9081711769104004 -1.0 0.0 -0.0
-2.240000009536743 2.42860675851504 1.5265369415283203 -1.0 0.0 0.0
-2.240000009536743 2.4058201611042023 1.3357198238372803 -1.0 0.0 0.0
-2.240000009536743 2.303280472755432 2.6714396476745605 -1.0 0.0 0.0
-2.240000009536743 2.2804938753445945 3.0530738830566406 -1.0 0.0 0.0
-2.240000009536743 2.314673771460851 3.2438910007476807 -1.0 0.0 0.0
-2.240000009536743 2.212134083112081 4.197976589202881 -1.0 0.0 0.0
-2.240000009536743 2.291887174050013 3.6255252361297607 -1.0 0.0 -0.0
-2.240000009536743 2.2349206805229187 3.816342353820801 -1.0 0.0 0.0
-2.240000009536743 2.348853667577108 3.816342353820801 -1.0 -0.0 0.0
-2.240000009536743 2.291887174050013 4.388793706893921 -1.0 0.0 0.0
-2.240000009536743 2.3716402649879456 4.197976589202881 -1.0 0.0 0.0
-2.240000009536743 2.42860675851504 4.197976589202881 -1.0 0.0 -0.0
-2.240000009536743 2.42860675851504 3.816342353820801 -1.0 0.0 0.0
-2.240000009536743 2.4058201611042023 3.6255252361297607 -1.0 0.0 0.0
-2.240000009536743 2.42860675851504 2.6714396476745605 -1.0 -0.0 -0.0
-2.240000009536743 2.4058201611042023 3.2438910007476807 -1.0 0.0 0.0
-2.240000009536743 2.42860675851504 3.0530738830566406 -1.0 0.0 -0.0
-2.240000009536743 2.3716402649879456 3.0530738830566406 -1.0 0.0 0.0
-2.240000009536743 2.3602469662825265 2.4806225299835205 -1.0 0.0 0.0
-2.240000009536743 2.394426862398783 2.6714396476745605 -1.0 0.0 0.0
-2.240000009536743 2.1665608882904053 4.961245059967041 -1.0 0.0 0.0
-2.240000009536743 2.1437742908795676 5.342879295349121 -1.0 0.0 0.0
-2.240000009536743 2.1779541869958243 5.533696413040161 -1.0 0.0 0.0
-2.240000009536743 2.075414498647054 6.487782001495361 -1.0 0.0 0.0
-2.240000009536743 2.155167589584986 5.915330648422241 -1.0 0.0 -0.0
-2.240000009536743 2.098201096057892 6.106147766113281 -1.0 0.0 0.0
-2.240000009536743 2.212134083112081 6.106147766113281 -1.0 -0.0 0.0
-2.240000009536743 2.155167589584986 6.678599119186401 -1.0 0.0 0.0
-2.240000009536743 2.2349206805229187 6.487782001495361 -1.0 0.0 0.0
-2.240000009536743 1.938694914182027 8.777587413787842 -1.0 0.0 0.0
-2.240000009536743 1.961481511592865 8.395953178405762 -1.0 0.0 0.0
-2.240000009536743 2.0184480051199594 8.205136060714722 -1.0 0.0 -0.0
-2.240000009536743 2.1209876934687295 7.632684707641602 -1.0 0.0 -0.0
-2.240000009536743 2.1779541869958243 7.0602333545684814 -1.0 0.0 -0.0
-2.240000009536743 2.098201096057892 7.2510504722595215 -1.0 0.0 0.0
-2.240000009536743 2.0298413038253784 7.2510504722595215 -1.0 0.0 0.0
-2.240000009536743 2.0070547064145408 7.632684707641602 -1.0 0.0 0.0
-2.240000009536743 2.0412346025307975 7.823501825332642 -1.0 0.0 0.0
-2.240000009536743 2.2804938753445945 7.2510504722595215 -1.0 -0.0 0.0
-2.240000009536743 2.303280472755432 7.632684707641602 -1.0 0.0 0.0
-2.240000009536743 2.2235273818174996 7.823501825332642 -1.0 0.0 0.0
-2.240000009536743 2.1209876934687295 8.395953178405762 -1.0 0.0 0.0
-2.240000009536743 2.052627901236216 8.777587413787842 -1.0 0.0 0.0
-2.240000009536743 2.200740784406662 8.968404531478882 -1.0 0.0 0.0
-2.240000009536743 2.3716402649879456 8.777587413787842 -1.0 0.0 0.0
-2.240000009536743 2.348853667577108 8.395953178405762 -1.0 0.0 0.0
-2.240000009536743 2.2463139792283378 8.205136060714722 -1.0 0.0 0.0
-2.240000009536743 2.42860675851504 8.777587413787842 -1.0 0.0 -0.0
-2.240000009536743 2.42860675851504 8.395953178405762 -1.0 0.0 0.0
-2.240000009536743 2.4058201611042023 8.205136060714722 -1.0 0.0 0.0
-2.240000009536743 2.42860675851504 7.2510504722595215 -1.0 -0.0 -0.0
-2.240000009536743 2.4058201611042023 7.823501825332642 -1.0 0.0 0.0
-2.240000009536743 2.42860675851504 7.632684707641602 -1.0 0.0 -0.0
-2.240000009536743 2.3716402649879456 7.632684707641602 -1.0 0.0 0.0
-2.240000009536743 2.3602469662825265 7.0602333545684814 -1.0 0.0 0.0
-2.240000009536743 2.394426862398783 7.2510504722595215 -1.0 0.0 0.0
-2.240000009536743 2.42860675851504 4.961245059967041 -1.0 -0.0 -0.0
-2.240000009536743 2.42860675851504 5.342879295349121 -1.0 0.0 -0.0
-2.240000009536743 2.4058201611042023 5.533696413040161 -1.0 0.0 0.0
-2.240000009536743 2.3716402649879456 6.106147766113281 -1.0 0.0 0.0
-2.240000009536743 2.348853667577108 6.487782001495361 -1.0 0.0 0.0
-2.240000009536743 2.3830335636933646 6.678599119186401 -1.0 0.0 0.0
-2.240000009536743 2.42860675851504 6.487782001495361 -1.0 0.0 -0.0
-2.240000009536743 2.42860675851504 6.106147766113281 -1.0 0.0 0.0
-2.240000009536743 2.4058201611042023 5.915330648422241 -1.0 0.0 0.0
-2.240000009536743 2.303280472755432 6.487782001495361 -1.0 0.0 0.0
-2.240000009536743 2.291887174050013 5.915330648422241 -1.0 0.0 0.0
-2.240000009536743 2.32606707016627 6.106147766113281 -1.0 0.0 0.0
-2.240000009536743 2.2577072779337564 5.342879295349121 -1.0 0.0 0.0
-2.240000009536743 2.314673771460851 4.770427942276001 -1.0 0.0 -0.0
-2.240000009536743 2.2349206805229187 4.961245059967041 -1.0 0.0 0.0
-2.240000009536743 2.394426862398783 4.961245059967041 -1.0 -0.0 -0.0
-2.240000009536743 2.314673771460851 5.533696413040161 -1.0 0.0 0.0
-2.240000009536743 2.3716402649879456 5.342879295349121 -1.0 0.0 -0.0
-2.240000009536743 1.8400749812523525 8.777587413787842 -1.0 0.0 -0.0
-2.240000009536743 1.8628615786631901 8.395953178405762 -1.0 0.0 0.0
-2.240000009536743 1.7225882063309352 8.205136060714722 -1.0 0.0 0.0
-2.240000009536743 1.9312213708957036 7.2510504722595215 -1.0 -0.0 -0.0
-2.240000009536743 1.745374803741773 7.823501825332642 -1.0 0.0 0.0
-2.240000009536743 1.908434773484866 7.632684707641602 -1.0 0.0 -0.0
-2.240000009536743 1.529268095890681 7.632684707641602 -1.0 0.0 0.0
-2.240000009536743 1.6392813275257747 7.0602333545684814 -1.0 0.0 -0.0
-2.240000009536743 1.4003880222638447 7.2510504722595215 -1.0 0.0 0.0
-2.240000009536743 1.9767945657173793 6.487782001495361 -1.0 0.0 -0.0
-2.240000009536743 1.999581163128217 6.106147766113281 -1.0 0.0 0.0
-2.240000009536743 1.859307790795962 5.915330648422241 -1.0 0.0 0.0
-2.240000009536743 2.0679409553607306 4.961245059967041 -1.0 -0.0 -0.0
-2.240000009536743 1.8820943882067998 5.533696413040161 -1.0 0.0 0.0
-2.240000009536743 2.0451543579498925 5.342879295349121 -1.0 0.0 -0.0
-2.240000009536743 1.6659876803557079 5.342879295349121 -1.0 0.0 0.0
-2.240000009536743 1.7760009119908016 4.770427942276001 -1.0 0.0 -0.0
-2.240000009536743 1.5371076067288716 4.961245059967041 -1.0 0.0 0.0
-2.240000009536743 1.3096076001723607 4.961245059967041 -1.0 0.0 0.0
-2.240000009536743 1.427094375093778 5.533696413040161 -1.0 0.0 0.0
-2.240000009536743 1.286821002761523 5.342879295349121 -1.0 0.0 0.0
-2.240000009536743 1.6204144855340321 6.106147766113281 -1.0 -0.0 0.0
-2.240000009536743 1.5104012538989384 6.678599119186401 -1.0 0.0 0.0
-2.240000009536743 1.7492945591608684 6.487782001495361 -1.0 0.0 0.0
-2.240000009536743 1.2184612105290096 6.487782001495361 -1.0 0.0 0.0
-2.240000009536743 1.4043077776829402 5.915330648422241 -1.0 0.0 -0.0
-2.240000009536743 1.2412478079398472 6.106147766113281 -1.0 0.0 0.0
-2.240000009536743 1.0667945394913356 6.487782001495361 -1.0 0.0 -0.0
-2.240000009536743 1.0895811369021733 6.106147766113281 -1.0 0.0 0.0
-2.240000009536743 0.9493077645699183 5.915330648422241 -1.0 0.0 0.0
-2.240000009536743 1.1579409291346867 4.961245059967041 -1.0 -0.0 -0.0
-2.240000009536743 0.9720943619807562 5.533696413040161 -1.0 0.0 0.0
-2.240000009536743 1.135154331723849 5.342879295349121 -1.0 0.0 -0.0
-2.240000009536743 0.7559876541296641 5.342879295349121 -1.0 0.0 0.0
-2.240000009536743 0.8660008857647578 4.770427942276001 -1.0 0.0 -0.0
-2.240000009536743 0.627107580502828 4.961245059967041 -1.0 0.0 0.0
-2.240000009536743 2.113514150182406 4.197976589202881 -1.0 0.0 -0.0
-2.240000009536743 2.136300747593244 3.816342353820801 -1.0 0.0 0.0
-2.240000009536743 1.996027375260989 3.6255252361297607 -1.0 0.0 0.0
-2.240000009536743 2.2046605398257575 2.6714396476745605 -1.0 -0.0 -0.0
-2.240000009536743 2.018813972671827 3.2438910007476807 -1.0 0.0 0.0
-2.240000009536743 2.1818739424149194 3.0530738830566406 -1.0 0.0 -0.0
-2.240000009536743 1.8027072648207347 3.0530738830566406 -1.0 0.0 0.0
-2.240000009536743 1.9127204964558284 2.4806225299835205 -1.0 0.0 -0.0
-2.240000009536743 1.6738271911938984 2.6714396476745605 -1.0 0.0 0.0
-2.240000009536743 2.250233734647433 1.9081711769104004 -1.0 0.0 -0.0
-2.240000009536743 2.273020332058271 1.5265369415283203 -1.0 0.0 0.0
-2.240000009536743 2.1327469597260156 1.3357198238372803 -1.0 0.0 0.0
-2.240000009536743 2.3413801242907843 0.3816342353820801 -1.0 -0.0 -0.0
-2.240000009536743 2.1555335571368537 0.9540855884552002 -1.0 0.0 0.0
-2.240000009536743 2.3185935268799462 0.7632684707641602 -1.0 0.0 -0.0
-2.240000009536743 1.9394268492857616 0.7632684707641602 -1.0 0.0 0.0
-2.240000009536743 2.049440080920855 0.19081711769104004 -1.0 0.0 -0.0
-2.240000009536743 1.8105467756589253 0.3816342353820801 -1.0 0.0 0.0
-2.240000009536743 1.5830467691024144 0.3816342353820801 -1.0 0.0 0.0
-2.240000009536743 1.7005335440238316 0.9540855884552002 -1.0 0.0 0.0
-2.240000009536743 1.5602601716915767 0.7632684707641602 -1.0 0.0 0.0
