1.7866666316986084 -1.2000000476837158 11.726666768391928 0.0 -1.0 0.0
3.799999952316284 1.2266666889190674 11.726666768391928 1.0 0.0 0.0
-0.22666668891906738 2.440000057220459 11.726666768391928 0.0 1.0 0.0
-2.240000009536743 0.013333320617675781 11.726666768391928 -1.0 0.0 0.0
-0.22666668891906738 0.013333320617675781 10.0 0.0 0.0 -1.0
1.7866666316986084 1.2266666889190674 10.0 0.0 0.0 -1.0
-0.22666668891906738 0.013333320617675781 15.180000305175781 0.0 0.0 1.0
1.7866666316986084 1.2266666889190674 15.180000305175781 -0.0 0.0 1.0
-0.22666668891906738 -1.2000000476837158 13.453333536783854 0.0 -1.0 0.0
3.799999952316284 0.013333320617675781 13.453333536783854 1.0 0.0 0.0
1.7866666316986084 2.440000057220459 13.453333536783854 0.0 1.0 -0.0
-2.240000009536743 1.2266666889190674 13.453333536783854 -1.0 0.0 0.0
-2.493333339691162 2.2577072779337564 9.159221649169922 -0.0 -0.0 -1.0
4.053333282470703 1.2266666889190674 9.159221649169922 0.0 0.0 -1.0
4.306666612625122 -0.5866666634877523 9.159221649169922 0.0 0.0 -1.0
3.4728430906931558 -1.8000000317891438 9.159221649169922 -0.0 -0.0 -1.0
-1.0604902108510335 -1.8000000317891438 9.159221649169922 0.0 -0.0 -1.0
1.2061764399210613 -2.400000015894572 9.159221649169922 0.0 0.0 -1.0
-2.746666669845581 -0.5866666634877523 9.159221649169922 0.0 0.0 -1.0
-2.493333339691162 1.044373909632365 9.159221649169922 0.0 0.0 -1.0
3.4728430906931558 -1.8000000317891438 10.0 -0.0 0.0 1.0
-2.493333339691162 2.2577072779337564 10.0 0.0 0.0 1.0
4.053333282470703 1.2266666889190674 10.0 0.0 0.0 1.0
4.306666612625122 -0.5866666634877523 10.0 0.0 -0.0 1.0
-1.0604902108510335 -1.8000000317891438 10.0 -0.0 0.0 1.0
1.2061764399210613 -2.400000015894572 10.0 0.0 0.0 1.0
-2.746666669845581 -0.5866666634877523 10.0 0.0 0.0 1.0
-2.493333339691162 1.044373909632365 10.0 0.0 0.0 1.0
4.306666612625122 2.440000057220459 9.439481099446615 0.0 1.0 0.0
4.053333282470703 2.440000057220459 9.719740549723307 0.0 1.0 0.0
-2.746666669845581 2.440000057220459 9.439481099446615 0.0 1.0 0.0
-2.493333339691162 2.440000057220459 9.719740549723307 0.0 1.0 -0.0
-0.48000001907348633 -3.0 9.719740549723307 -0.0 -1.0 0.0
4.559999942779541 -1.1866666475931804 9.719740549723307 1.0 0.0 0.0
-3.0 0.6266667048136393 9.719740549723307 -1.0 0.0 0.0
1.7866666316986084 1.2266666889190674 10.0 -0.0 0.0 1.0
-0.8071568806966146 1.044373909632365 10.0 0.0 0.0 1.0
-0.8071568806966146 -0.1689594586690267 10.0 0.0 0.0 1.0
1.2061764399210613 0.013333320617675781 10.0 0.0 0.0 1.0
-2.240000009536743 -0.1689594586690267 6.106147766113281 -1.0 -0.0 0.0
-2.240000009536743 2.2577072779337564 6.106147766113281 -1.0 0.0 0.0
-2.240000009536743 1.044373909632365 3.0530738830566406 -1.0 0.0 -0.0
1.7866666316986084 2.440000057220459 9.439481099446615 0.0 1.0 -0.0
-0.22666668891906738 2.440000057220459 9.719740549723307 -0.0 1.0 0.0
-0.22666668891906738 2.440000057220459 3.0530738830566406 0.0 1.0 0.0
1.7866666316986084 2.440000057220459 6.106147766113281 -0.0 1.0 0.0
3.799999952316284 1.2266666889190674 6.106147766113281 1.0 0.0 0.0
3.799999952316284 0.013333320617675781 3.0530738830566406 1.0 0.0 0.0
3.219509760538737 -1.2000000476837158 6.106147766113281 0.0 -1.0 0.0
1.2061764399210613 -1.2000000476837158 3.0530738830566406 0.0 -1.0 0.0
-0.8071568806966146 -1.2000000476837158 6.106147766113281 -0.0 -1.0 0.0
1.7866666316986084 1.2266666889190674 0.0 0.0 0.0 -1.0
-0.22666668891906738 0.013333320617675781 0.0 0.0 0.0 -1.0
2.0399999618530273 -3.0 9.439481099446615 0.0 -1.0 -0.0
4.559999942779541 0.6266667048136393 9.439481099446615 1.0 0.0 0.0
-3.0 -1.1866666475931804 9.439481099446615 -1.0 0.0 0.0
14.356666564941406 0.5487531224886576 4.0 -0.0 0.0 1.0
14.09333324432373 -1.2038698593775432 4.0 0.0 0.0 1.0
14.023798942565918 -1.4666666984558105 4.0 0.0 0.0 1.0
14.09333324432373 -0.6684500575065613 4.0 0.0 0.0 1.0
13.927309354146322 -1.4666666984558105 4.0 0.0 0.0 1.0
13.872390747070312 -1.4666666984558105 4.0 0.0 0.0 1.0
10.761311531066895 2.9733333587646484 4.0 -0.0 0.0 1.0
14.09333324432373 2.028753141562144 4.0 0.0 0.0 1.0
13.037978172302246 2.7066667079925537 4.0 0.0 0.0 1.0
8.990248680114746 2.7066667079925537 4.0 0.0 0.0 1.0
8.156723340352377 2.7066667079925537 4.0 0.0 0.0 1.0
7.263333320617676 0.6912468870480856 4.0 0.0 0.0 1.0
7.526666641235352 2.443869868914286 4.0 0.0 0.0 1.0
7.596200942993164 2.7066667079925537 4.0 0.0 0.0 1.0
7.526666641235352 1.9084500670433044 4.0 0.0 0.0 1.0
7.692690531412761 2.7066667079925537 4.0 0.0 -0.0 1.0
7.7476091384887695 2.7066667079925537 4.0 0.0 -0.0 1.0
10.858688354492188 -1.7333333492279053 4.0 0.0 0.0 1.0
7.526666641235352 -0.7887531320254008 4.0 0.0 0.0 1.0
8.582021713256836 -1.4666666984558105 4.0 0.0 0.0 1.0
12.629751205444336 -1.4666666984558105 4.0 -0.0 0.0 1.0
13.463276545206705 -1.4666666984558105 4.0 -0.0 0.0 1.0
13.962206522623697 -1.4666666984558105 3.159221649169922 0.0 0.0 -1.0
14.09333324432373 -0.5811947584152222 3.159221649169922 0.0 0.0 -1.0
14.09333324432373 -1.2591083248456318 3.159221649169922 0.0 0.0 -1.0
14.03841463724772 -1.4666666984558105 3.159221649169922 0.0 0.0 -1.0
14.356666564941406 0.6912468870480856 3.159221649169922 0.0 0.0 -1.0
13.259807904561361 2.7066667079925537 3.159221649169922 0.0 0.0 -1.0
14.09333324432373 2.171246906121572 3.159221649169922 0.0 0.0 -1.0
10.98314126332601 2.9733333587646484 3.159221649169922 0.0 0.0 -1.0
13.892672220865885 -1.4666666984558105 3.159221649169922 0.0 0.0 -1.0
9.10580317179362 2.7066667079925537 3.159221649169922 0.0 0.0 -1.0
8.050448099772135 2.7066667079925537 3.159221649169922 0.0 0.0 -1.0
7.657793362935384 2.7066667079925537 3.159221649169922 0.0 0.0 -1.0
7.526666641235352 1.8211947778860729 3.159221649169922 0.0 0.0 -1.0
7.526666641235352 2.49910835425059 3.159221649169922 0.0 0.0 -1.0
7.58158524831136 2.7066667079925537 3.159221649169922 0.0 0.0 -1.0
7.263333320617676 0.5487531125545502 3.159221649169922 0.0 0.0 -1.0
8.36019198099772 -1.4666666984558105 3.159221649169922 -0.0 0.0 -1.0
7.526666641235352 -0.9312469065189362 3.159221649169922 0.0 -0.0 -1.0
10.636858622233072 -1.7333333492279053 3.159221649169922 0.0 -0.0 -1.0
7.727327664693196 2.7066667079925537 3.159221649169922 0.0 0.0 -1.0
12.514196713765463 -1.4666666984558105 3.159221649169922 0.0 0.0 -1.0
13.569551785786947 -1.4666666984558105 3.159221649169922 -0.0 -0.0 -1.0
7.0 -0.25333333015441895 3.4394810994466147 -1.0 0.0 0.0
9.539999961853027 3.240000009536743 3.4394810994466147 0.0 1.0 0.0
14.619999885559082 1.493333339691162 3.4394810994466147 1.0 0.0 0.0
12.079999923706055 -2.0 3.4394810994466147 0.0 -1.0 0.0
7.789999961853027 0.3522900938987732 4.772814432779948 -1.0 -0.0 0.0
7.789999961853027 -0.6645802557468414 2.1061477661132812 -1.0 0.0 0.0
7.789999961853027 -0.522086481253306 4.386407216389974 -1.0 0.0 0.0
7.789999961853027 2.232441703478495 2.1061477661132812 -1.0 0.0 0.0
7.789999961853027 2.1772032181421914 4.386407216389974 -1.0 0.0 0.0
7.789999961853027 1.8382464249928792 4.772814432779948 -1.0 0.0 0.0
7.789999961853027 0.5487531125545502 1.0530738830566406 -1.0 0.0 0.0
7.789999961853027 1.3028266231218975 4.386407216389974 -1.0 0.0 0.0
7.789999961853027 1.5545281271139781 2.1061477661132812 -1.0 0.0 0.0
7.844918568929036 2.440000057220459 2.1061477661132812 -0.0 1.0 0.0
7.85953426361084 2.440000057220459 4.386407216389974 0.0 1.0 0.0
7.949220021565755 2.440000057220459 4.772814432779948 -0.0 1.0 0.0
9.072187105814615 2.440000057220459 4.772814432779948 0.0 1.0 0.0
8.544509569803873 2.440000057220459 4.386407216389974 0.0 1.0 0.0
8.135395367940268 2.440000057220459 4.386407216389974 0.0 1.0 -0.0
8.31378142038981 2.440000057220459 2.1061477661132812 0.0 1.0 0.0
7.990660985310872 2.440000057220459 2.1061477661132812 0.0 1.0 0.0
9.905712445576986 2.440000057220459 4.386407216389974 0.0 1.0 0.0
9.369136492411295 2.440000057220459 2.1061477661132812 -0.0 1.0 0.0
10.98314126332601 2.440000057220459 1.0530738830566406 0.0 1.0 0.0
8.100628217061361 2.440000057220459 4.772814432779948 -0.0 1.0 0.0
8.045709609985352 2.440000057220459 4.386407216389974 0.0 1.0 0.0
7.92112668355306 2.440000057220459 2.1061477661132812 0.0 1.0 0.0
12.996474583943685 2.440000057220459 2.1061477661132812 -0.0 1.0 0.0
12.77464485168457 2.440000057220459 4.386407216389974 0.0 1.0 0.0
11.413441975911459 2.440000057220459 4.772814432779948 0.0 1.0 0.0
13.829999923706055 1.904580255349477 2.1061477661132812 1.0 0.0 0.0
13.829999923706055 1.7620864907900493 4.386407216389974 1.0 0.0 -0.0
13.829999923706055 0.8877099057038625 4.772814432779948 1.0 0.0 0.0
13.829999923706055 -0.9924416740735372 2.1061477661132812 1.0 0.0 0.0
13.829999923706055 -0.9372032086054484 4.386407216389974 1.0 0.0 0.0
13.829999923706055 -0.5982464253902435 4.772814432779948 1.0 -0.0 0.0
13.829999923706055 0.6912468870480856 1.0530738830566406 1.0 0.0 0.0
13.829999923706055 -0.06282662351926167 4.386407216389974 1.0 0.0 0.0
13.829999923706055 -0.31452810764312744 2.1061477661132812 1.0 0.0 0.0
13.775081316630045 -1.2000000476837158 2.1061477661132812 -0.0 -1.0 -0.0
13.760465621948242 -1.2000000476837158 4.386407216389974 0.0 -1.0 0.0
13.670779863993326 -1.2000000476837158 4.772814432779948 -0.0 -1.0 0.0
12.547812779744467 -1.2000000476837158 4.772814432779948 0.0 -1.0 0.0
13.075490315755209 -1.2000000476837158 4.386407216389974 0.0 -1.0 0.0
13.484604517618815 -1.2000000476837158 4.386407216389974 0.0 -1.0 0.0
13.306218465169271 -1.2000000476837158 2.1061477661132812 0.0 -1.0 0.0
13.629338900248209 -1.2000000476837158 2.1061477661132812 0.0 -1.0 0.0
11.714287439982096 -1.2000000476837158 4.386407216389974 0.0 -1.0 0.0
12.250863393147787 -1.2000000476837158 2.1061477661132812 -0.0 -1.0 -0.0
10.636858622233072 -1.2000000476837158 1.0530738830566406 0.0 -1.0 -0.0
13.51937166849772 -1.2000000476837158 4.772814432779948 -0.0 -1.0 0.0
13.57429027557373 -1.2000000476837158 4.386407216389974 0.0 -1.0 0.0
13.698873202006022 -1.2000000476837158 2.1061477661132812 0.0 -1.0 0.0
8.623525301615397 -1.2000000476837158 2.1061477661132812 -0.0 -1.0 0.0
8.845355033874512 -1.2000000476837158 4.386407216389974 0.0 -1.0 0.0
10.206557909647623 -1.2000000476837158 4.772814432779948 0.0 -1.0 0.0
14.09333324432373 -0.25333333015441895 8.0 0.0 0.0 1.0
14.356666564941406 1.2266666889190674 8.0 0.0 0.0 1.0
13.968880335489908 -1.4666666984558105 8.0 0.0 0.0 1.0
12.204452832539877 2.7066667079925537 8.0 0.0 -0.0 1.0
9.927786191304525 2.9733333587646484 8.0 0.0 -0.0 1.0
7.526666641235352 1.493333339691162 8.0 0.0 0.0 1.0
7.263333320617676 0.013333320617675781 8.0 0.0 0.0 1.0
7.651119550069173 2.7066667079925537 8.0 0.0 -0.0 1.0
9.415547053019205 -1.4666666984558105 8.0 -0.0 0.0 1.0
11.692213694254557 -1.7333333492279053 8.0 0.0 0.0 1.0
14.09333324432373 -0.25333333015441895 7.159221649169922 0.0 0.0 -1.0
13.968880335489908 -1.4666666984558105 7.159221649169922 0.0 0.0 -1.0
12.204452832539877 2.7066667079925537 7.159221649169922 0.0 0.0 -1.0
14.356666564941406 1.2266666889190674 7.159221649169922 0.0 0.0 -1.0
9.927786191304525 2.9733333587646484 7.159221649169922 0.0 0.0 -1.0
7.526666641235352 1.493333339691162 7.159221649169922 0.0 0.0 -1.0
7.651119550069173 2.7066667079925537 7.159221649169922 0.0 0.0 -1.0
9.415547053019205 -1.4666666984558105 7.159221649169922 -0.0 0.0 -1.0
7.263333320617676 0.013333320617675781 7.159221649169922 0.0 0.0 -1.0
11.692213694254557 -1.7333333492279053 7.159221649169922 0.0 0.0 -1.0
7.0 -0.25333333015441895 7.439481099446614 -1.0 0.0 0.0
9.539999961853027 3.240000009536743 7.439481099446614 0.0 1.0 0.0
14.619999885559082 1.493333339691162 7.439481099446614 1.0 0.0 0.0
12.079999923706055 -2.0 7.439481099446614 0.0 -1.0 0.0
7.789999961853027 0.013333320617675781 9.333333333333334 -1.0 0.0 0.0
7.789999961853027 1.2266666889190674 8.666666666666666 -1.0 0.0 0.0
9.927786191304525 2.440000057220459 9.333333333333334 0.0 1.0 0.0
7.914452870686849 2.440000057220459 8.666666666666666 0.0 1.0 0.0
11.941119511922201 2.440000057220459 8.666666666666666 0.0 1.0 0.0
13.829999923706055 1.2266666889190674 9.333333333333334 1.0 0.0 -0.0
13.829999923706055 0.013333320617675781 8.666666666666666 1.0 0.0 0.0
11.692213694254557 -1.2000000476837158 9.333333333333334 0.0 -1.0 0.0
13.705547014872232 -1.2000000476837158 8.666666666666666 0.0 -1.0 -0.0
9.678880373636881 -1.2000000476837158 8.666666666666666 0.0 -1.0 0.0
11.816666603088379 1.2266666889190674 10.0 -0.0 0.0 1.0
9.803333282470703 0.013333320617675781 10.0 0.0 0.0 1.0
11.816666603088379 1.2266666889190674 0.0 0.0 0.0 -1.0
9.803333282470703 0.013333320617675781 0.0 0.0 0.0 -1.0
7.789999961853027 -0.18312970797220865 6.386407216389974 -1.0 0.0 0.0
7.789999961853027 1.0302036603291829 6.772814432779948 -1.0 0.0 0.0
7.789999961853027 2.2435370286305747 6.386407216389974 -1.0 0.0 0.0
7.894301414489746 2.440000057220459 6.386407216389974 0.0 1.0 0.0
8.018754323323568 2.440000057220459 6.772814432779948 -0.0 1.0 0.0
8.143207232157389 2.440000057220459 6.386407216389974 0.0 1.0 0.0
8.469206174214682 2.440000057220459 6.386407216389974 0.0 1.0 0.0
12.246966997782389 2.440000057220459 6.386407216389974 0.0 1.0 0.0
10.358086585998535 2.440000057220459 6.772814432779948 -0.0 1.0 0.0
13.829999923706055 1.423129717508952 6.386407216389974 1.0 0.0 0.0
13.829999923706055 0.2097963492075602 6.772814432779948 1.0 0.0 0.0
13.829999923706055 -1.0035370190938313 6.386407216389974 1.0 0.0 0.0
13.725698471069336 -1.2000000476837158 6.386407216389974 0.0 -1.0 0.0
13.601245562235514 -1.2000000476837158 6.772814432779948 -0.0 -1.0 0.0
13.476792653401693 -1.2000000476837158 6.386407216389974 0.0 -1.0 0.0
13.1507937113444 -1.2000000476837158 6.386407216389974 0.0 -1.0 0.0
9.373032887776693 -1.2000000476837158 6.386407216389974 0.0 -1.0 0.0
11.261913299560547 -1.2000000476837158 6.772814432779948 -0.0 -1.0 0.0
12.079999923706055 -2.0 5.439481099446614 0.0 -1.0 0.0
14.619999885559082 1.493333339691162 5.439481099446614 1.0 0.0 0.0
9.539999961853027 3.240000009536743 5.439481099446614 0.0 1.0 0.0
7.0 -0.25333333015441895 5.439481099446614 -1.0 0.0 0.0
13.316749890645346 -1.4666666984558105 5.159221649169922 0.0 0.0 -1.0
7.740805308024089 2.7066667079925537 5.159221649169922 0.0 0.0 -1.0
11.164536158243815 -1.7333333492279053 5.159221649169922 0.0 -0.0 -1.0
7.526666641235352 -0.5922901233037313 5.159221649169922 0.0 -0.0 -1.0
8.887869517008463 -1.4666666984558105 5.159221649169922 -0.0 0.0 -1.0
7.526666641235352 2.3677099148432412 5.159221649169922 -0.0 -0.0 -1.0
7.263333320617676 0.887709895769755 5.159221649169922 0.0 0.0 -1.0
7.616352399190267 2.7066667079925537 5.159221649169922 0.0 0.0 -1.0
8.303249994913736 2.7066667079925537 5.159221649169922 0.0 0.0 -1.0
13.879194577534994 -1.4666666984558105 5.159221649169922 0.0 0.0 -1.0
10.455463727315268 2.9733333587646484 5.159221649169922 0.0 0.0 -1.0
14.09333324432373 1.832290122906367 5.159221649169922 0.0 0.0 -1.0
12.732130368550619 2.7066667079925537 5.159221649169922 0.0 0.0 -1.0
14.09333324432373 -1.1277099152406056 5.159221649169922 0.0 0.0 -1.0
14.356666564941406 0.3522901038328807 5.159221649169922 0.0 -0.0 -1.0
14.003647486368815 -1.4666666984558105 5.159221649169922 0.0 0.0 -1.0
13.538579940795898 -1.4666666984558105 6.0 -0.0 0.0 1.0
9.109699567159018 -1.4666666984558105 6.0 0.0 0.0 1.0
7.526666641235352 -0.4497963587443034 6.0 0.0 0.0 1.0
11.386366208394369 -1.7333333492279053 6.0 0.0 0.0 1.0
7.755421002705892 2.7066667079925537 6.0 0.0 -0.0 1.0
7.63096809387207 2.7066667079925537 6.0 0.0 0.0 1.0
7.526666641235352 2.5102036794026694 6.0 0.0 0.0 1.0
7.263333320617676 1.0302036603291829 6.0 0.0 0.0 1.0
8.081419944763184 2.7066667079925537 6.0 0.0 0.0 1.0
12.510300318400065 2.7066667079925537 6.0 0.0 0.0 1.0
14.09333324432373 1.6897963682810466 6.0 0.0 0.0 1.0
10.233633677164713 2.9733333587646484 6.0 -0.0 0.0 1.0
13.86457888285319 -1.4666666984558105 6.0 0.0 0.0 1.0
13.989031791687012 -1.4666666984558105 6.0 0.0 0.0 1.0
14.09333324432373 -1.270203669865926 6.0 0.0 0.0 1.0
14.356666564941406 0.2097963492075602 6.0 -0.0 0.0 1.0
7.0 1.493333339691162 3.719740549723307 -1.0 0.0 0.0
12.079999923706055 3.240000009536743 3.719740549723307 0.0 1.0 -0.0
14.619999885559082 -0.25333333015441895 3.719740549723307 1.0 0.0 0.0
9.539999961853027 -2.0 3.719740549723307 0.0 -1.0 0.0
7.0 1.493333339691162 7.719740549723308 -1.0 0.0 0.0
12.079999923706055 3.240000009536743 7.719740549723308 0.0 1.0 -0.0
14.619999885559082 -0.25333333015441895 7.719740549723308 1.0 0.0 0.0
9.539999961853027 -2.0 7.719740549723308 0.0 -1.0 0.0
9.539999961853027 -2.0 5.719740549723308 0.0 -1.0 0.0
14.619999885559082 -0.25333333015441895 5.719740549723308 1.0 0.0 0.0
12.079999923706055 3.240000009536743 5.719740549723308 0.0 1.0 -0.0
7.0 1.493333339691162 5.719740549723308 -1.0 0.0 0.0
18.40821901957194 -1.7333333492279053 0.0 0.0 0.0 -1.0
17.741552352905273 -1.7333333492279053 0.0 -0.0 0.0 -1.0
18.074885686238606 -2.2666666507720947 0.0 0.0 0.0 -1.0
17.510000228881836 1.2266666889190674 10.333333333333334 -1.0 0.0 0.0
17.510000228881836 -2.2666666507720947 7.0 -1.0 0.0 0.0
17.510000228881836 -0.5199999809265137 10.666666666666666 -1.0 -0.0 0.0
17.510000228881836 -1.7333333492279053 3.3333333333333335 -1.0 0.0 0.0
18.176666895548504 2.440000057220459 10.333333333333334 0.0 1.0 -0.0
17.843333562215168 2.440000057220459 10.666666666666666 0.0 1.0 0.0
18.510000228881836 -2.2666666507720947 6.32268762588501 1.0 0.0 0.0
18.510000228881836 -1.693475604057312 10.333333333333334 1.0 0.0 -0.0
18.510000228881836 -0.23360049724578857 10.666666666666666 1.0 0.0 0.0
18.510000228881836 -1.407076120376587 10.333333333333334 1.0 0.0 0.0
18.510000228881836 -1.7333333492279053 9.656020959218344 1.0 0.0 0.0
18.510000228881836 1.312183141708374 10.333333333333334 1.0 0.0 0.0
18.510000228881836 2.2391170263290405 10.333333333333334 1.0 0.0 0.0
18.510000228881836 -1.7333333492279053 3.3173967599868774 1.0 0.0 0.0
18.510000228881836 -1.7333333492279053 0.6613758007685343 1.0 0.0 0.0
18.176666895548504 0.6933333873748779 11.0 -0.0 0.0 1.0
17.843333562215168 -1.0533332824707031 11.0 0.0 0.0 1.0
18.176666895548504 -2.799999952316284 3.6666666666666665 0.0 -1.0 0.0
17.510000228881836 0.013333320617675781 6.666666666666667 -1.0 0.0 0.0
17.510000228881836 1.2266666889190674 3.3333333333333335 -1.0 0.0 -0.0
19.00666681925456 2.2391170263290405 10.0 0.0 0.0 1.0
19.503333409627277 1.7389183044433594 10.0 0.0 0.0 1.0
19.00666681925456 -1.1601423025131226 10.0 0.0 0.0 1.0
19.503333409627277 -1.0608964959780376 10.0 -0.0 0.0 1.0
19.00666681925456 0.8119844198226929 10.0 0.0 0.0 1.0
19.00666681925456 -0.7744970122973124 10.0 0.0 0.0 1.0
19.503333409627277 -0.10122011105219524 10.0 -0.0 0.0 1.0
19.503333409627277 1.7389183044433594 0.0 0.0 -0.0 -1.0
18.176666895548504 2.2391170263290405 0.0 -0.0 -0.0 -1.0
19.00666681925456 2.2391170263290405 0.0 0.0 0.0 -1.0
18.40821901957194 -1.1601423025131226 0.0 0.0 0.0 -1.0
18.074885686238606 -1.1601423025131226 0.0 0.0 0.0 -1.0
19.00666681925456 -1.1601423025131226 0.0 0.0 0.0 -1.0
19.503333409627277 -1.0608964959780376 0.0 0.0 0.0 -1.0
18.176666895548504 1.312183141708374 0.0 0.0 0.0 -1.0
19.00666681925456 0.8119844198226929 0.0 -0.0 0.0 -1.0
17.843333562215168 0.2997328042984009 0.0 0.0 0.0 -1.0
19.00666681925456 -0.7744970122973124 0.0 -0.0 0.0 -1.0
18.176666895548504 -0.8737428188323975 0.0 0.0 0.0 -1.0
19.503333409627277 -0.10122011105219524 0.0 0.0 0.0 -1.0
18.176666895548504 2.440000057220459 9.448123613993326 0.0 1.0 -0.0
19.00666681925456 2.440000057220459 9.448123613993326 0.0 1.0 0.0
19.503333409627277 2.440000057220459 8.073951403299967 0.0 1.0 0.0
18.176666895548504 2.440000057220459 6.901602029800415 0.0 1.0 0.0
19.00666681925456 2.440000057220459 5.527429819107056 0.0 1.0 0.0
17.843333562215168 2.440000057220459 4.120145082473755 0.0 1.0 0.0
19.00666681925456 2.440000057220459 1.1689643462498982 0.0 1.0 0.0
18.176666895548504 2.440000057220459 0.8963110645612081 0.0 1.0 0.0
19.503333409627277 2.440000057220459 3.0186261534690857 -0.0 1.0 0.0
19.00666681925456 2.440000057220459 0.10949931542078654 0.0 1.0 0.0
18.176666895548504 2.440000057220459 0.10949931542078654 0.0 1.0 0.0
19.503333409627277 2.440000057220459 0.38215259710947674 -0.0 1.0 0.0
19.00666681925456 -1.2000000476837158 4.964222391446431 -0.0 -1.0 0.0
19.00666681925456 -1.2000000476837158 9.32268762588501 0.0 -1.0 0.0
19.503333409627277 -1.2000000476837158 7.6361799240112305 0.0 -1.0 0.0
19.00666681925456 -1.2000000476837158 0.6613758007685343 0.0 -1.0 0.0
19.503333409627277 -1.2000000476837158 2.3082014322280884 0.0 -1.0 -0.0
23.448218027750652 -1.7333333492279053 0.0 0.0 0.0 -1.0
22.781551361083984 -1.7333333492279053 0.0 0.0 0.0 -1.0
23.114884694417317 -2.2666666507720947 0.0 0.0 -0.0 -1.0
22.549999237060547 -0.3191169301668803 10.666666666666666 -1.0 0.0 0.0
22.549999237060547 1.4275497396787007 10.333333333333334 -1.0 0.0 -0.0
22.549999237060547 -2.2666666507720947 7.0 -1.0 0.0 0.0
22.549999237060547 -1.532450298468272 10.333333333333334 -1.0 0.0 0.0
22.549999237060547 -1.7333333492279053 3.3333333333333335 -1.0 0.0 -0.0
23.216665903727215 2.440000057220459 10.666666666666666 -0.0 1.0 0.0
22.88333257039388 2.440000057220459 10.333333333333334 0.0 1.0 0.0
23.549999237060547 -0.5199999809265137 10.666666666666666 1.0 0.0 0.0
23.549999237060547 -2.2666666507720947 7.0 1.0 0.0 0.0
23.549999237060547 1.2266666889190674 10.333333333333334 1.0 0.0 0.0
23.549999237060547 -1.7333333492279053 3.3333333333333335 1.0 0.0 -0.0
23.216665903727215 0.6933333873748779 11.0 -0.0 0.0 1.0
22.88333257039388 -1.0533332824707031 11.0 0.0 0.0 1.0
23.216665903727215 -2.799999952316284 3.6666666666666665 0.0 -1.0 0.0
23.216665903727215 1.2266666889190674 0.0 -0.0 -0.0 -1.0
22.88333257039388 0.21421637137730917 0.0 0.0 0.0 -1.0
22.781551361083984 -0.9991169969240824 0.0 0.0 0.0 -1.0
23.114884694417317 -0.9991169969240824 0.0 0.0 0.0 -1.0
22.88333257039388 2.440000057220459 0.5518764654795328 0.0 1.0 0.0
23.216665903727215 2.440000057220459 3.885209798812866 0.0 1.0 -0.0
22.88333257039388 2.440000057220459 7.218543132146199 0.0 1.0 0.0
23.549999237060547 1.2266666889190674 3.3333333333333335 1.0 0.0 0.0
22.03333282470703 0.7264679769674937 10.0 0.0 -0.0 1.0
21.516666412353516 1.7389182945092518 10.0 0.0 0.0 1.0
21.516666412353516 -1.0608964959780376 10.0 0.0 0.0 1.0
22.03333282470703 -0.8600134452184042 10.0 0.0 -0.0 1.0
21.516666412353516 -0.3477618396282196 10.0 0.0 0.0 1.0
22.03333282470703 0.7264679769674937 0.0 0.0 -0.0 -1.0
21.516666412353516 1.7389182945092518 0.0 0.0 0.0 -1.0
20.666666666666668 1.7389182945092518 0.0 0.0 0.0 -1.0
20.333333333333332 1.2387195726235707 0.0 0.0 0.0 -1.0
21.516666412353516 -1.0608964959780376 0.0 0.0 0.0 -1.0
22.03333282470703 -0.8600134452184042 0.0 0.0 0.0 -1.0
20.898218790690105 -1.0608964959780376 0.0 0.0 -0.0 -1.0
20.231552124023438 -1.1007542411486309 0.0 0.0 0.0 -1.0
20.56488545735677 -0.9616506894429525 0.0 0.0 0.0 -1.0
21.516666412353516 -0.3477618396282196 0.0 0.0 0.0 -1.0
20.666666666666668 -0.44939908385276794 0.0 0.0 -0.0 -1.0
20.333333333333332 0.1246320108572642 0.0 0.0 0.0 -1.0
20.333333333333332 2.440000057220459 8.62582778930664 0.0 1.0 0.0
20.666666666666668 2.440000057220459 6.699779033660889 0.0 1.0 0.0
22.03333282470703 2.440000057220459 5.292494376500447 0.0 1.0 0.0
21.516666412353516 2.440000057220459 8.073951244354248 0.0 1.0 0.0
21.516666412353516 2.440000057220459 2.341313640276591 0.0 1.0 0.0
20.666666666666668 2.440000057220459 2.0620904564857483 0.0 1.0 0.0
20.333333333333332 2.440000057220459 3.6390989820162454 0.0 1.0 0.0
21.516666412353516 2.440000057220459 0.38215259710947674 0.0 1.0 0.0
22.03333282470703 2.440000057220459 0.9340290625890096 -0.0 1.0 0.0
20.333333333333332 2.440000057220459 0.2726532816886902 0.0 1.0 0.0
20.666666666666668 2.440000057220459 0.6548058787981669 0.0 1.0 -0.0
21.516666412353516 -1.2000000476837158 8.974867979685465 0.0 -1.0 0.0
22.03333282470703 -1.2000000476837158 5.641534646352132 0.0 -1.0 -0.0
21.516666412353516 -1.2000000476837158 2.308201313018799 0.0 -1.0 0.0
20.666666666666668 -2.799999952316284 3.6666666666666665 0.0 -1.0 0.0
20.333333333333332 -1.0533332824707031 11.0 0.0 0.0 1.0
20.666666666666668 0.6933333873748779 11.0 -0.0 0.0 1.0
21.0 -1.7333333492279053 2.308201313018799 1.0 0.0 0.0
21.0 1.7389182945092518 10.333333333333334 1.0 0.0 0.0
21.0 -0.0077483753363291425 10.666666666666666 1.0 -0.0 0.0
21.0 -1.7333333492279053 9.308201313018799 1.0 0.0 0.0
21.0 -1.594229797522227 10.333333333333334 1.0 0.0 -0.0
21.0 -1.0819781919320424 10.333333333333334 1.0 0.0 0.0
21.0 -2.2666666507720947 5.974867979685466 1.0 0.0 0.0
20.666666666666668 2.440000057220459 10.333333333333334 0.0 1.0 -0.0
20.333333333333332 2.440000057220459 10.666666666666666 -0.0 1.0 0.0
20.0 -1.7333333492279053 1.646825631459554 -1.0 0.0 -0.0
20.0 -1.7333333492279053 8.646825631459555 -1.0 -0.0 -0.0
20.0 -2.2666666507720947 5.313492298126221 -1.0 0.0 0.0
20.0 -1.6340875426928203 10.333333333333334 -1.0 0.0 0.0
20.0 1.9398013353347778 10.333333333333334 -1.0 0.0 -0.0
20.0 -0.42075417439142865 10.666666666666666 -1.0 0.0 0.0
20.0 0.8257137735684713 10.333333333333334 -1.0 0.0 0.0
20.56488545735677 -2.2666666507720947 0.0 0.0 -0.0 -1.0
20.231552124023438 -1.7333333492279053 0.0 0.0 0.0 -1.0
20.898218790690105 -1.7333333492279053 0.0 0.0 0.0 -1.0
17.843333562215168 -2.799999952316284 7.333333333333333 0.0 -1.0 0.0
22.88333257039388 -2.799999952316284 7.333333333333333 0.0 -1.0 0.0
23.549999237060547 0.013333320617675781 6.666666666666667 1.0 0.0 0.0
20.333333333333332 -2.799999952316284 7.333333333333333 0.0 -1.0 0.0